X,Y,Z,I,
-23.0075, -5.42039, 1.80006, 27
-18.8047, -11.0775, 2.4001, 9
-22.9276, -5.39336, 1.2723, 84
-18.5855, -6.49691, 3.98646, 8
-18.4906, -5.71558, 1.22173, 3
-16.0197, -11.8131, 1.99329, 24
-18.6255, -6.82508, 4.0358, 8
-18.6276, -6.57633, 4.20616, 9
-15.8195, -11.6485, 2.46996, 10
-18.7, -6.87958, 4.14686, 9
-23.8593, -5.28688, 1.09591, 7
-18.7004, -8.14658, 4.85113, 9
-16.4116, -11.8816, 3.83038, 9
-19.4937, -8.77566, 1.29507, 7
-18.7473, -11.7427, 1.36826, 9
-22.9607, -8.68507, 1.26773, 9
-18.707, -7.88745, 3.72092, 9
-15.0791, -11.8937, 4.41984, 11
-23.7142, -10.4154, 1.31443, 8
-18.811, -6.59231, 4.03507, 9
-18.8829, -7.11236, 4.02842, 9
-23.3583, -4.97218, 1.40456, 36
-19.721, -6.6656, 1.27659, 25
-23.5389, -10.4196, 1.46764, 10
-16.4389, -11.824, 3.9819, 10
-18.9416, -9.74973, 4.10973, 9
-18.7631, -7.22699, 4.92996, 7
-16.189, -11.8592, 3.04261, 9
-22.9127, -5.46829, 1.99741, 8
-18.6755, -6.97124, 1.4354, 2
-20.2437, -24.6452, 3.16661, 17
-23.2152, -24.6759, 3.00201, 37
-16.1321, -21.4358, 3.80532, 55
-21.2921, -24.2054, 1.37296, 52
-23.1354, -24.74, 1.93596, 46
-22.1896, -22.8154, 2.94147, 45
-22.3168, -23.151, 4.17712, 56
-16.0211, -21.5205, 4.13835, 44
-21.9186, -23.2669, 2.87893, 32
-16.0305, -21.5538, 4.37339, 44
-14.8693, -21.5376, 3.11018, 66
-16.0784, -21.4582, 1.07901, 23
-20.99, -23.8272, 2.89139, 23
-23.4966, -24.7048, 3.0183, 47
-21.2357, -24.6041, 3.37605, 11
-21.4431, -22.3219, 2.78765, 40
-22.417, -23.3417, 2.51905, 10
-23.5441, -23.9418, 4.51557, 42
-23.4572, -23.9762, 4.14409, 44
-18.2189, -24.5861, 2.52838, 11
-20.2568, -24.4683, 2.01264, 13
-21.7548, -22.5668, 3.22452, 43
-16.0343, -21.446, 2.60202, 40
-15.2652, -21.7239, 4.09694, 20
-16.0468, -21.4591, 2.35411, 42
-21.3557, -23.8431, 2.86156, 46
-21.7641, -22.6507, 2.87679, 11
-21.8902, -22.6671, 2.36752, 14
-19.6725, -24.141, 3.3652, 45
-19.1449, -24.2013, 2.15502, 31
-21.9212, -22.9539, 2.53571, 12
-23.9033, -23.5167, 4.44527, 29
-22.4502, -23.0378, 3.30129, 29
-22.8363, -23.2109, 3.76756, 11
-23.8865, -23.8526, 3.23009, 10
-23.4387, -24.3818, 4.85707, 75
-23.4567, -23.9583, 3.84574, 43
-23.0965, -23.1341, 3.45432, 42
-19.3554, -23.7955, 2.29599, 16
-20.936, -24.0959, 3.5426, 13
-21.2934, -24.1151, 3.50327, 41
-24.3106, -23.6212, 4.91118, 42
-22.6628, -23.2807, 3.47136, 33
-24.0887, -23.2571, 3.35605, 74
-23.463, -23.991, 4.82237, 55
-23.913, -23.7812, 3.26843, 24
-16.0576, -21.466, 2.36224, 46
-20.5554, -24.2605, 2.64895, 10
-22.2531, -24.4791, 3.75458, 41
-21.7468, -22.9886, 3.66682, 13
-22.4896, -23.5798, 4.67275, 44
-21.8382, -22.1782, 3.16949, 29
-24.1647, -24.0227, 4.26734, 21
-21.1639, -24.3354, 2.62804, 36
-20.2886, -24.1033, 2.67578, 29
-18.7341, -24.5237, 2.59973, 51
-21.8398, -22.4918, 2.89844, 13
-15.1878, -21.6667, 1.43423, 11
-24.1516, -23.1979, 3.69175, 34
-21.5357, -24.174, 2.84922, 24
-23.8426, -23.479, 4.34585, 25
-22.4646, -22.3486, 3.07096, 37
-23.0429, -24.335, 3.94364, 13
-21.4516, -23.862, 2.6888, 60
-16.1692, -21.4413, 4.09449, 21
-23.947, -23.8724, 3.11277, 12
-19.7746, -24.1102, 3.45148, 30
-22.4616, -23.1051, 3.11651, 14
-23.929, -23.5047, 4.23041, 53
-14.9356, -21.7592, 3.83129, 10
-15.0889, -21.7014, 1.49436, 8
-22.051, -22.1064, 3.26844, 35
-24.0541, -23.2757, 3.53768, 42
-16.1435, -21.4481, 3.55605, 29
-22.3125, -22.6103, 2.70209, 38
-23.4444, -22.9148, 3.59553, 37
-21.705, -24.5272, 3.72895, 46
-20.2258, -24.3779, 2.45826, 14
-21.8759, -22.549, 4.20686, 16
-15.2252, -21.7158, 1.03839, 10
-22.7722, -24.3571, 3.93939, 21
-21.3886, -23.8523, 2.61274, 44
-22.1966, -23.799, 3.15337, 37
-23.805, -23.9141, 4.61517, 80
-21.9878, -22.1083, 3.01609, 50
-15.3207, -21.6892, 4.83315, 41
-22.4111, -23.1105, 3.78773, 35
-23.7955, -23.5591, 4.66498, 42
-20.7073, -24.0717, 2.63229, 43
-23.9746, -23.9217, 3.90082, 14
-20.3889, -23.5888, 2.96845, 49
-22.2355, -23.3135, 2.83355, 35
-23.7967, -23.7292, 3.79734, 34
-20.2277, -23.5416, 3.12901, 64
-20.205, -23.5773, 3.23101, 36
-23.7126, -23.9177, 4.23617, 46
-20.4067, -24.5858, 3.05599, 41
-21.3237, -24.2845, 3.14492, 50
-22.9979, -23.0433, 3.03952, 33
-22.6038, -23.5468, 4.38282, 45
-16.0469, -21.3951, 1.95064, 63
-19.1641, -24.6713, 2.8276, 45
-21.3744, -22.5362, 2.78219, 46
-22.3331, -22.7153, 2.42668, 42
-23.8356, -23.168, 3.64166, 52
-22.1719, -22.4969, 3.17532, 46
-16.0974, -21.5299, 4.42985, 100
-16.096, -21.4813, 1.92762, 21
-24.4581, -23.0877, 4.9104, 41
-23.2228, -22.9032, 3.66099, 32
-22.152, -22.4864, 3.13904, 55
-22.3843, -22.5397, 2.72762, 42
-20.314, -24.4517, 2.71705, 15
-18.5134, -24.3863, 2.32271, 28
-20.5728, -24.3154, 2.17197, 22
-22.4138, -23.5832, 4.64984, 55
-22.5011, -22.4742, 3.15397, 41
-16.0858, -21.4709, 3.2928, 100
-19.3795, -23.8089, 2.63208, 10
-24.4962, -24.353, 4.7653, 54
-21.3924, -24.6462, 4.42804, 12
-20.4281, -24.0856, 1.77733, 31
-19.6828, -24.1727, 3.40429, 43
-16.0878, -21.4272, 2.96427, 100
-21.5097, -22.5548, 3.48116, 51
-21.6416, -22.8001, 2.68507, 29
-23.1776, -23.0348, 3.78553, 51
-20.6512, -23.6089, 2.98742, 24
-23.2777, -24.5265, 4.71653, 50
-20.2702, -24.1044, 2.39929, 35
-21.4128, -22.7769, 2.93615, 31
-22.9716, -23.0177, 3.31749, 42
-22.4042, -23.0653, 4.17519, 52
-22.7402, -23.2376, 3.46164, 28
-24.284, -23.5377, 4.90363, 42
-15.2833, -21.7897, 4.31301, 20
-16.0405, -21.4604, 2.56148, 53
-22.5291, -23.3595, 3.73701, 27
-23.9142, -23.834, 4.66169, 54
-21.6058, -24.6242, 4.65471, 52
-22.0826, -24.1823, 3.37785, 44
-20.7929, -24.0764, 1.98902, 63
-18.6294, -24.0225, 2.34202, 44
-24.2197, -23.7193, 4.13372, 49
-21.4273, -22.6258, 3.47548, 25
-16.051, -21.4849, 3.11888, 92
-16.0369, -21.5403, 3.86209, 65
-20.1982, -24.4612, 2.51773, 37
-20.5229, -24.1966, 2.17937, 42
-19.8641, -24.6796, 3.7482, 48
-18.2608, -24.3505, 2.2532, 42
-24.7214, -24.5756, 3.14307, 21
-18.985, -24.2094, 2.39007, 47
-16.3649, -17.3475, 1.24108, 12
-21.8586, -22.8418, 2.76229, 31
-18.9666, -24.0892, 2.40817, 33
-20.8596, -24.0041, 2.24038, 43
-24.2059, -23.6992, 4.3584, 26
-22.8882, -23.3345, 3.36433, 44
-22.2938, -23.7521, 4.78004, 38
-23.4388, -24.5791, 2.3736, 47
-19.2755, -24.652, 2.97759, 48
-22.013, -22.6115, 3.53754, 25
-21.5581, -22.7612, 3.14924, 43
-22.0945, -24.1991, 3.45384, 20
-20.5664, -24.0991, 2.45276, 45
-15.2753, -21.6721, 3.93743, 21
-16.0225, -21.4383, 2.40616, 52
-19.4745, -24.3093, 2.60266, 48
-20.1287, -23.7481, 2.22076, 43
-16.1109, -21.4478, 2.47788, 53
-21.367, -24.7325, 4.04514, 63
-19.7939, -24.3946, 2.69379, 41
-24.0392, -23.2596, 4.93242, 40
-22.409, -23.1564, 3.56727, 55
-15.3024, -21.6423, 2.71971, 21
-16.0276, -21.3856, 1.18618, 56
-22.7193, -22.5406, 3.01322, 42
-19.3723, -24.7309, 2.82645, 31
-16.132, -21.5395, 4.81054, 100
-16.034, -21.4683, 2.08815, 65
-16.1307, -21.4884, 3.66281, 100
-24.0132, -23.8832, 4.09123, 33
-19.6115, -24.6398, 3.32651, 40
-23.6895, -24.6351, 2.5623, 45
-23.2207, -22.9404, 3.09497, 43
-16.1231, -21.485, 3.92022, 81
-16.1139, -21.4791, 2.75769, 100
-23.6439, -23.8807, 4.75338, 60
-22.3384, -23.8141, 3.5756, 39
-19.6716, -24.7362, 2.90342, 31
-22.5171, -22.5181, 2.98697, 44
-24.0933, -23.2384, 3.31556, 16
-19.2753, -23.9578, 2.19143, 62
-16.0638, -21.4541, 1.96569, 52
-20.8312, -23.8274, 1.95031, 10
-22.0849, -24.0979, 3.38535, 61
-21.6599, -22.6309, 2.79376, 37
-23.2276, -22.9159, 3.78256, 51
-20.0834, -24.6522, 2.8955, 22
-15.1894, -21.8713, 2.81498, 21
-19.8113, -24.7042, 3.85045, 59
-20.2817, -24.3859, 2.28885, 43
-18.4395, -24.3039, 2.73715, 21
-16.0703, -21.513, 4.28103, 100
-18.4087, -24.2495, 2.2167, 48
-19.6593, -24.6136, 3.40106, 46
-20.2745, -24.3955, 1.94734, 21
-15.1498, -21.7409, 1.73619, 10
-21.3679, -22.8567, 3.15336, 30
-23.0246, -23.0728, 2.84805, 35
-22.0603, -23.9824, 3.14634, 23
-20.787, -23.8257, 1.75824, 49
-21.3926, -24.7488, 4.90055, 23
-22.0216, -24.1754, 3.43286, 32
-19.7661, -24.1739, 3.6212, 13
-20.3647, -23.8699, 2.03718, 33
-19.1363, -24.2393, 2.64171, 34
-15.1193, -21.7793, 4.43133, 31
-15.6892, -21.4962, 3.12194, 94
-16.1072, -21.402, 1.41706, 64
-16.0455, -21.5685, 4.83979, 52
-23.9378, -24.1263, 4.63058, 100
-22.4868, -23.5747, 3.39198, 34
-22.2054, -22.3181, 1.35114, 51
-21.4961, -22.5164, 2.86436, 28
-23.2086, -22.9289, 4.16481, 19
-20.6829, -23.8223, 2.41298, 13
-23.7331, -24.1601, 4.86074, 42
-22.1001, -24.0949, 3.56216, 58
-20.1013, -23.9809, 2.86931, 43
-20.7452, -23.832, 1.59595, 39
-20.4873, -24.0197, 3.75142, 25
-22.3776, -23.9976, 3.56431, 28
-24.0753, -24.212, 4.75807, 49
-21.0133, -23.6796, 2.39782, 66
-18.3979, -24.5311, 2.69249, 32
-20.3042, -24.4931, 2.39651, 36
-16.0603, -21.4011, 1.80594, 69
-16.0454, -21.4317, 1.94132, 100
-16.0346, -21.4341, 2.95538, 55
-15.2479, -21.7328, 4.41196, 31
-22.3937, -24.3932, 4.28962, 39
-22.3964, -22.7023, 3.02112, 33
-18.988, -24.5769, 3.27333, 100
-23.1263, -24.6, 2.70912, 42
-21.574, -22.5478, 3.31418, 64
-22.2944, -23.8834, 3.75801, 52
-20.6886, -23.7575, 2.75195, 37
-20.0928, -23.9854, 2.4475, 45
-21.6344, -24.4398, 3.68324, 18
-19.5632, -24.2268, 3.9345, 25
-18.9884, -24.7486, 2.87146, 42
-19.2539, -24.6763, 3.43261, 43
-23.2853, -24.6562, 2.76412, 54
-21.3235, -22.6757, 4.15461, 16
-23.2611, -22.8463, 3.76528, 43
-21.9276, -22.5154, 2.72874, 37
-23.9077, -23.0911, 3.78855, 43
-22.5347, -22.9075, 2.80761, 33
-21.1279, -23.8788, 2.74768, 51
-22.3884, -24.2379, 3.78667, 53
-20.6685, -24.1747, 2.50551, 31
-21.7061, -23.0562, 2.9637, 35
-18.8657, -24.526, 2.69869, 50
-23.7087, -23.5417, 4.49789, 57
-22.491, -24.7121, 4.08292, 35
-23.4435, -23.2744, 4.15787, 35
-21.7566, -23.1671, 2.96282, 45
-19.1387, -23.9655, 2.28293, 47
-19.1253, -24.2353, 2.32592, 44
-20.4285, -23.5415, 2.85558, 34
-23.9785, -23.6725, 3.90751, 31
-22.4421, -23.2625, 2.58406, 15
-19.5446, -24.1831, 3.41139, 45
-21.4846, -24.2442, 3.09573, 44
-20.096, -23.945, 1.81876, 22
-20.8723, -23.8225, 1.48271, 11
-21.8866, -24.1954, 4.25761, 37
-20.5113, -24.1237, 2.91133, 44
-16.0381, -21.4128, 1.52751, 40
-16.0087, -21.4786, 2.89105, 65
-15.1983, -21.7653, 4.39205, 31
-16.0196, -21.4693, 1.79429, 54
-22.2851, -23.153, 2.77634, 13
-23.6464, -23.354, 3.80125, 43
-21.5273, -22.7166, 3.29557, 40
-21.1183, -23.8327, 2.19996, 34
-22.4511, -23.9708, 3.44191, 38
-20.5164, -24.0177, 3.5892, 50
-22.8043, -23.7563, 3.72027, 48
-24.2408, -24.1284, 4.84017, 47
-21.5504, -23.8287, 2.74588, 39
-23.0009, -23.9534, 3.97906, 27
-19.19, -24.0323, 2.55631, 29
-14.8906, -21.7977, 4.20485, 20
-16.0793, -21.3596, 1.22708, 55
-23.5085, -23.4202, 3.92287, 46
-22.0086, -23.1179, 2.78626, 31
-20.4855, -23.9652, 3.29178, 55
-21.8291, -24.3224, 4.50045, 46
-22.9809, -22.9441, 3.30169, 45
-23.591, -23.7824, 4.49849, 57
-22.7682, -24.2086, 4.58777, 47
-21.3174, -24.1147, 3.28392, 63
-23.7972, -23.6676, 4.20206, 34
-16.0222, -21.4942, 3.59302, 85
-22.745, -23.6033, 4.14794, 44
-15.2998, -21.7145, 1.82798, 10
-16.0869, -21.43, 3.29859, 62
-20.6241, -23.9926, 1.25844, 13
-21.6693, -24.6239, 4.01634, 63
-19.9884, -24.1833, 2.70499, 35
-24.0572, -24.0976, 4.81118, 56
-22.458, -23.6415, 3.524, 57
-24.0364, -23.1286, 4.87914, 21
-23.839, -23.2684, 3.62294, 26
-22.179, -22.7209, 3.28119, 20
-23.6997, -23.627, 3.50783, 19
-23.5906, -23.9791, 3.74, 15
-21.3479, -22.5373, 2.97574, 43
-21.2418, -23.6412, 2.60533, 50
-22.9212, -24.0949, 3.95347, 26
-23.7284, -23.6405, 3.3184, 25
-23.2229, -24.1222, 4.67512, 45
-21.8575, -22.3402, 2.68418, 17
-21.6059, -24.5718, 4.18327, 51
-20.5589, -23.9625, 1.58267, 18
-22.8682, -24.6842, 4.90211, 48
-15.1825, -21.6652, 1.95014, 30
-23.8532, -23.8201, 4.63787, 63
-22.5482, -23.2699, 3.39026, 15
-21.3053, -23.817, 2.21612, 42
-19.2291, -23.8141, 2.43734, 45
-20.5525, -23.9317, 3.48313, 67
-16.1159, -21.4365, 2.61267, 100
-22.2936, -23.7916, 3.85301, 26
-18.8853, -24.0355, 2.21407, 31
-21.8128, -24.5885, 4.44579, 14
-20.8916, -23.97, 1.94305, 20
-20.8869, -23.9817, 2.35109, 49
-22.4132, -24.2741, 3.69897, 49
-21.7643, -23.1258, 3.23881, 19
-20.0037, -23.8569, 2.0839, 32
-19.5608, -24.3255, 3.4789, 43
-21.5076, -24.2646, 3.34619, 44
-22.3918, -23.351, 3.04663, 33
-20.3454, -23.4536, 3.27266, 34
-23.995, -23.7339, 4.10464, 57
-22.3022, -22.7179, 2.63981, 52
-23.8279, -23.201, 3.82608, 41
-19.0139, -24.1867, 2.173, 14
-21.436, -24.607, 3.71684, 47
-19.9475, -24.1957, 2.4013, 44
-16.0789, -21.4034, 2.03524, 100
-21.1586, -23.8598, 2.90525, 44
-22.7198, -24.3571, 4.24652, 34
-19.9098, -24.3372, 2.96469, 22
-21.4261, -24.7363, 4.23449, 34
-21.8993, -24.6016, 4.1844, 24
-20.3008, -24.3651, 2.9166, 23
-19.9806, -24.3677, 3.16881, 14
-18.5577, -24.0616, 2.23544, 63
-21.5692, -24.598, 4.36108, 40
-20.68, -23.9247, 1.81021, 23
-21.4955, -23.8973, 4.0938, 34
-20.1434, -23.619, 3.14163, 48
-23.7436, -23.8763, 3.95847, 44
-22.4166, -23.803, 3.95871, 25
-21.5739, -24.4044, 3.82476, 38
-19.9899, -24.0917, 2.58838, 39
-22.4206, -24.1368, 3.8009, 38
-21.0515, -23.7967, 2.57827, 52
-21.4192, -22.5258, 2.40564, 27
-24.3961, -23.1975, 4.93556, 48
-22.7164, -24.1249, 3.6974, 18
-20.5992, -24.0072, 3.80963, 21
-19.2665, -23.8385, 2.5749, 30
-21.3019, -23.6786, 2.43361, 47
-24.1622, -24.1901, 4.66123, 55
-21.8896, -24.5399, 4.02691, 12
-20.3211, -24.3583, 2.78455, 33
-21.4978, -24.6371, 2.59053, 34
-19.6201, -24.6719, 2.97687, 46
-23.6433, -24.666, 2.49075, 47
-22.6255, -24.661, 4.83205, 43
-19.374, -23.8784, 2.30996, 13
-23.7399, -23.538, 3.31077, 19
-22.8841, -23.118, 3.32791, 57
-19.2921, -23.813, 2.23776, 11
-20.6097, -23.9382, 3.31126, 51
-22.7022, -24.6708, 4.47689, 49
-19.9372, -23.9255, 2.04398, 10
-21.2722, -24.3125, 3.21312, 54
-19.0065, -24.3413, 2.68933, 50
-22.4341, -24.5924, 3.4999, 47
-22.5104, -24.4599, 3.80884, 32
-15.1782, -21.7732, 4.69708, 30
-16.0116, -21.5345, 3.41256, 56
-19.6155, -24.6157, 3.54691, 40
-23.6744, -24.676, 2.91132, 20
-20.2288, -24.2496, 2.24867, 34
-24.09, -23.2436, 3.60668, 68
-22.372, -22.6943, 2.50164, 45
-22.6229, -24.6678, 4.5428, 31
-1.02701, 1.86981, 3.61705, 2
18.0893, -3.99166, 5.02768, 3
18.1316, -3.5663, 5.22511, 3
18.1465, -3.64621, 5.85773, 7
18.1376, -2.77653, 5.36791, 3
18.1098, -3.08941, 5.34453, 3
18.546, 3.14328, 5.11925, 9
18.6224, 3.82442, 5.41001, 8
18.3717, -1.5572, 5.97754, 12
18.1194, -4.51126, 5.51311, 5
18.1136, -4.48893, 5.61485, 9
18.1404, -1.80937, 5.8994, 3
18.2916, -2.40448, 5.68314, 7
18.1147, -4.41018, 5.96397, 8
18.254, -2.58838, 5.98743, 3
18.122, -4.0266, 5.50816, 10
18.1744, -4.27052, 5.45982, 8
18.1894, -4.57935, 5.66684, 9
18.3044, -1.98946, 5.13224, 7
18.6373, 4.15249, 5.12494, 3
18.4553, 0.534913, 5.19199, 3
18.4066, 0.334809, 5.04343, 8
18.3141, -3.0649, 5.90905, 11
18.5117, 2.92885, 5.36342, 3
18.4475, 1.19111, 5.34767, 3
18.1333, -3.60577, 5.26957, 3
18.4401, 1.09187, 5.94355, 5
18.1189, -4.83222, 5.8843, 3
18.3095, -2.09931, 5.33519, 6
18.366, -1.43756, 5.61893, 10
18.236, -3.978, 5.88832, 4
18.6079, 4.66923, 5.52365, 9
18.3082, -1.74514, 5.29708, 6
18.2873, -3.73388, 4.95284, 8
18.3985, -0.948541, 5.13825, 36
18.5669, 3.88517, 5.56695, 9
18.415, 0.756986, 4.97489, 3
18.3007, -2.25171, 5.86723, 9
18.3541, -1.67673, 5.67238, 6
18.2625, -2.77855, 5.78104, 8
18.4101, -1.13179, 5.91649, 32
18.3633, -0.533486, 5.22262, 3
18.6083, 4.19831, 5.77541, 3
18.292, -1.51845, 5.42438, 10
18.3443, -0.702103, 5.52015, 6
18.1515, -3.8576, 5.46403, 10
18.4396, 0.921446, 5.52322, 9
18.4929, -0.734427, 5.17625, 7
18.2069, -4.15989, 5.79776, 9
18.4464, -0.954299, 5.47121, 85
18.4071, -0.953937, 5.55501, 39
18.4717, 0.313871, 5.72193, 3
18.1934, -4.41403, 5.12593, 17
18.4517, -1.23075, 5.76281, 24
18.4858, 0.840473, 5.74622, 11
18.2045, -3.85757, 5.13461, 9
18.6081, 2.68451, 5.12292, 3
18.5001, -1.25458, 5.15148, 24
18.4525, -1.22651, 5.28384, 39
18.3432, -0.515307, 5.64733, 3
18.2346, -3.10485, 5.48205, 10
18.3763, -1.47652, 5.10041, 2
18.4549, -0.946335, 5.87217, 21
18.4923, -0.88318, 5.18462, 37
18.3755, -0.911123, 5.87604, 36
18.2154, -3.94212, 5.80534, 9
18.4935, -0.880283, 5.5407, 29
18.4905, 0.219277, 5.13243, 9
18.458, -0.891278, 5.65928, 21
18.1732, -4.28712, 5.1113, 9
18.2723, -4.35762, 5.93053, 9
18.5206, -1.26418, 5.9174, 27
18.2704, -2.98966, 5.58118, 9
18.1733, -4.49887, 5.50818, 9
18.3563, -2.29053, 5.2039, 8
18.374, -0.119273, 5.66336, 3
18.4208, -1.18164, 5.47992, 24
18.5966, 3.50322, 5.85409, 4
18.676, 4.65668, 5.14147, 4
18.3735, -1.05174, 5.2343, 100
18.4419, -1.21841, 5.59422, 30
18.4971, 0.0635006, 5.76945, 7
18.1703, -4.72016, 4.97318, 9
18.2197, -3.65411, 5.36582, 16
18.4568, 1.30732, 5.96892, 3
18.2357, -4.79992, 5.74224, 11
18.1834, -3.40341, 5.54652, 11
18.2634, -3.33649, 5.91273, 3
18.4439, 0.73684, 5.82254, 3
18.2822, -3.38689, 5.79156, 11
18.2929, -3.31456, 5.13168, 7
18.2542, -4.73154, 5.26672, 8
18.383, -0.680049, 5.99371, 6
18.4256, 0.31551, 5.31372, 6
18.2326, -2.47398, 5.43272, 9
18.5102, 2.51027, 5.97855, 8
18.2706, -2.78582, 5.39622, 10
18.524, 2.11391, 5.41623, 4
18.6452, 4.3189, 5.37511, 2
18.4094, -0.0139086, 5.31161, 6
18.1271, -4.83359, 5.48787, 10
18.3569, -0.334798, 5.6547, 3
18.6078, 4.74569, 5.5726, 8
18.4119, -0.120899, 4.98785, 5
18.6069, 1.91945, 5.30692, 4
18.5192, 2.0319, 5.09373, 4
18.4174, -0.226971, 5.24657, 2
18.6184, 4.53369, 5.59312, 9
18.2549, -3.70845, 5.78639, 7
18.2237, -2.91553, 5.1149, 7
18.528, 1.85284, 5.62145, 4
18.2668, -2.16368, 5.62066, 8
0.515524, 11.8251, 1.08762, 7
1.06741, 12.1276, 2.10271, 17
4.76072, 11.5049, 4.39948, 3
1.23478, 11.7576, 1.54459, 7
4.03151, 11.7765, 2.09497, 7
1.66537, 11.8837, 1.96859, 9
0.714095, 11.7453, 4.56798, 12
1.18044, 12.2278, 2.68545, 7
-2.77377, 12.1119, 2.51878, 4
0.772658, 11.8413, 1.31041, 25
3.30587, 11.7698, 2.57534, 7
4.18642, 11.6374, 4.17894, 12
-3.62917, 12.1168, 2.17754, 3
1.82684, 11.6849, 4.52993, 7
4.67016, 11.4958, 4.68136, 7
-1.64257, 12.0468, 4.2165, 3
-4.5873, 12.1439, 2.07666, 5
-4.88393, 12.2731, 1.05683, 3
-1.83055, 11.9607, 3.58999, 7
2.43133, 11.7361, 4.55777, 8
-0.221557, 11.8351, 3.16223, 3
-2.39243, 11.989, 4.01128, 6
-1.09125, 11.9219, 3.54213, 22
-2.78381, 12.0665, 3.77921, 3
-1.95654, 11.9536, 3.85075, 6
-0.0694022, 11.829, 3.30776, 8
1.46947, 11.8141, 4.80115, 3
-1.74206, 12.0421, 4.89662, 3
-1.06777, 12.0003, 2.53239, 9
4.03375, 11.7458, 3.06376, 9
1.99139, 11.7951, 2.73723, 9
1.06247, 12.1624, 1.36136, 14
1.76758, 11.8464, 2.27116, 9
-0.296007, 11.9645, 2.92275, 8
1.26793, 11.7879, 3.55098, 8
1.60198, 11.8246, 2.77681, 6
-1.92748, 11.9561, 4.13716, 6
1.37093, 12.3001, 1.25768, 21
2.23248, 11.7757, 3.56564, 9
2.26231, 11.7079, 3.69118, 3
-1.79937, 12.0822, 2.51928, 3
2.0261, 11.748, 4.05349, 2
3.30485, 11.6842, 4.65919, 12
-4.4929, 12.2325, 2.59322, 3
-3.09305, 12.1509, 2.49605, 3
1.17767, 12.2771, 3.15192, 18
-2.71115, 12.112, 3.05203, 6
-4.80581, 12.2509, 3.64686, 3
-1.60959, 12.1149, 2.57424, 5
-3.8905, 12.2026, 4.45537, 3
-4.60057, 12.2063, 2.51925, 3
-4.40512, 12.1791, 3.59056, 4
-3.45162, 12.2489, 2.19998, 3
-0.325979, 11.9935, 2.19202, 5
-4.05265, 12.3289, 3.08754, 9
-1.21594, 12.1304, 2.59243, 9
-0.710891, 12.0405, 2.28113, 11
0.750265, 11.7218, 4.1221, 11
1.58284, 11.8805, 2.76405, 8
-3.94762, 12.1321, 2.92587, 8
0.429397, 12.114, 2.50743, 8
3.87804, 11.6634, 4.58728, 5
-1.2411, 12.0224, 3.06331, 6
1.1643, 11.8195, 3.90664, 7
-0.772555, 11.9109, 4.59182, 6
-4.80861, 12.1091, 2.81414, 3
1.11973, 11.9057, 2.26864, 3
3.9537, 11.7237, 4.87654, 12
-0.140317, 11.8457, 3.99528, 8
-1.98057, 12.0771, 4.41041, 2
-3.06122, 12.2382, 3.18956, 9
3.35011, 11.8464, 1.97159, 4
-4.14972, 12.1769, 3.19067, 2
-3.58075, 12.0947, 3.63518, 6
0.420722, 12.1635, 3.97628, 18
-1.59119, 12.0139, 4.50237, 3
0.593733, 11.684, 3.9386, 33
3.71455, 11.6855, 4.91046, 11
0.817783, 12.0793, 3.09047, 34
0.623364, 11.7212, 4.20085, 94
4.94946, 11.6781, 4.66925, 12
2.55608, 11.7356, 4.49099, 7
2.59152, 11.8598, 4.65597, 2
4.67223, 11.6738, 4.10151, 5
0.778629, 11.9261, 1.377, 100
1.42648, 11.8802, 3.78965, 9
3.66488, 11.6482, 3.33192, 8
0.577943, 12.0613, 2.32125, 97
1.06471, 11.8573, 4.93626, 2
3.34597, 11.713, 4.33524, 9
3.77907, 11.7727, 4.14431, 6
1.79534, 11.7778, 3.91935, 12
2.5211, 11.8092, 3.07552, 6
-3.46292, 12.0224, 4.09496, 7
4.49923, 11.6932, 3.36287, 2
2.70901, 11.7899, 3.04755, 2
0.718967, 12.039, 3.5394, 47
-1.58044, 12.0304, 3.40328, 3
4.06571, 11.5814, 4.41137, 12
-0.749645, 11.9801, 1.68827, 7
0.626223, 12.061, 3.07523, 91
-0.215411, 11.9739, 3.60558, 8
1.76526, 11.836, 3.03732, 6
-4.23717, 12.1094, 4.28721, 3
4.03292, 11.6925, 3.16487, 8
3.98999, 11.6906, 2.82427, 4
-4.21055, 12.0668, 3.59796, 7
4.07409, 11.5556, 3.8661, 8
2.21251, 11.9381, 4.39411, 2
1.45353, 11.9957, 3.51161, 2
3.68439, 11.6509, 2.99939, 3
-0.785715, 12.1101, 1.64279, 3
-4.2641, 12.0872, 4.5432, 3
4.03995, 11.7924, 3.58599, 6
0.608459, 12.017, 2.80848, 73
2.55419, 11.7408, 4.90737, 11
1.95313, 11.7944, 2.48143, 7
-1.99083, 12.157, 3.73232, 2
-0.0802975, 11.9087, 3.06121, 11
0.894345, 12.2748, 3.67034, 25
-0.213363, 12.0871, 2.31818, 6
4.38107, 11.643, 4.62815, 3
0.767151, 12.0743, 2.79694, 45
-0.580445, 11.9049, 4.70625, 2
1.64969, 11.8397, 4.15836, 10
-3.52293, 12.2198, 1.56514, 4
-2.9444, 11.9962, 4.6924, 7
3.08531, 11.827, 2.99627, 7
0.956601, 12.0901, 3.62645, 94
0.824808, 12.0701, 2.24004, 75
1.88446, 11.7501, 4.83735, 3
0.626956, 12.0994, 1.81244, 63
3.30811, 11.7083, 3.66433, 9
0.416812, 12.1029, 3.42297, 6
4.51727, 11.7293, 2.54409, 5
2.45701, 11.8133, 2.05485, 8
0.860137, 12.2382, 4.70758, 14
-0.913393, 11.9116, 2.99617, 8
-1.39764, 12.1068, 2.5428, 9
-3.59136, 12.1665, 2.9835, 3
4.67259, 7.34276, 1.44488, 34
4.68741, 11.7244, 1.75226, 5
-3.2059, 12.1005, 2.63285, 7
0.505471, 12.1847, 3.00169, 38
0.433618, 12.1728, 4.91202, 5
-3.58123, 12.0654, 4.54593, 8
4.41433, 11.6415, 3.51849, 9
-0.210502, 11.9648, 1.49539, 3
-1.48719, 12.0579, 2.05572, 9
-3.49254, 12.2038, 2.63052, 3
0.492375, 11.8288, 1.59332, 32
0.517574, 12.1638, 2.02048, 28
3.19745, 11.7053, 2.89138, 7
1.15301, 11.9304, 3.61333, 4
4.26805, 11.736, 2.83162, 7
-3.7708, 12.0371, 3.60142, 7
-2.36069, 12.2539, 1.12162, 5
2.30137, 11.8445, 2.3401, 3
0.448708, 12.0958, 2.97326, 24
3.04911, 11.6957, 4.70254, 5
-3.15289, 12.1413, 3.24837, 8
0.493504, 12.1853, 3.55348, 26
4.70579, 11.7062, 2.48048, 6
4.68598, 11.6195, 2.93468, 4
0.485662, 12.1598, 4.156, 22
1.76769, 11.8898, 1.24031, 7
4.07705, 11.7149, 1.05818, 10
-2.78501, 12.152, 1.1681, 7
0.6496, 12.0665, 2.11948, 29
3.17338, 11.6597, 3.90025, 9
-3.18237, 12.2787, 2.06662, 3
0.898754, 12.1962, 2.62824, 26
-2.71524, 12.0043, 3.61108, 7
-3.84422, 12.1056, 3.79851, 6
4.31131, 11.6137, 3.1253, 8
1.05133, 12.147, 1.36238, 29
0.935246, 12.2634, 1.13858, 28
0.779204, 12.1733, 1.74573, 30
1.53438, 11.8383, 2.36372, 3
-0.619891, 11.9706, 3.10008, 6
2.22843, 11.731, 4.92971, 2
0.561443, 11.9158, 1.43461, 30
3.32768, 11.7476, 3.171, 10
4.05991, 11.6478, 3.56692, 24
-0.137187, 11.8569, 3.9227, 6
2.17274, 11.7989, 3.17454, 3
-1.91184, 12.2154, 1.15138, 5
-2.98188, 12.1247, 2.07025, 3
0.884118, 12.1809, 2.29966, 31
0.896086, 12.2094, 1.35319, 36
3.64889, 11.7321, 2.26945, 9
1.39264, 11.9212, 3.00158, 8
4.07868, 11.6613, 4.6622, 12
-3.22073, 12.1757, 2.61481, 3
-2.9094, 12.1007, 2.94768, 4
0.892424, 12.1942, 3.40099, 26
3.59349, 11.676, 4.12678, 4
1.43451, 11.9109, 4.81949, 5
3.28637, 11.7145, 2.38297, 3
1.21155, 11.9725, 3.01155, 8
0.780701, 11.9444, 1.25908, 57
-3.42019, 12.1332, 2.20093, 3
0.512407, 12.2822, 2.2678, 28
1.10571, 11.776, 3.12445, 4
-0.775442, 11.8839, 3.45433, 3
0.898721, 12.223, 2.08505, 37
0.532489, 12.1936, 1.82987, 28
2.64961, 11.83, 2.65192, 3
0.704825, 12.0436, 3.31125, 31
-4.30563, 12.1883, 1.12909, 7
-1.38434, 12.031, 3.06617, 6
-4.50174, 12.3465, 2.92289, 3
-4.17793, 12.198, 2.62332, 7
4.66373, 11.7436, 2.01545, 9
2.76111, 11.8521, 2.82863, 5
0.482449, 12.2106, 3.38455, 32
-3.2358, 12.0282, 3.65935, 8
0.477167, 12.1738, 3.8706, 28
4.84905, 11.5622, 2.80416, 4
2.91841, 11.7146, 2.77526, 8
0.783453, 12.0264, 3.2096, 36
-3.92618, 12.3189, 1.11823, 11
-4.38782, 12.2147, 1.13, 7
0.437485, 12.2068, 4.19976, 4
4.38958, 11.6945, 3.13753, 4
0.80453, 12.1107, 1.75136, 38
-0.608608, 12.0523, 3.81101, 2
1.45333, 11.8146, 3.16339, 9
4.89802, 11.697, 1.62933, 3
0.491626, 12.2549, 2.57368, 38
-4.46297, 12.1614, 4.20293, 10
-2.38964, 12.0871, 3.61627, 7
1.93016, 11.7937, 3.3584, 9
-0.236085, 11.9928, 3.76922, 8
3.83233, 11.7424, 2.50683, 3
1.90003, 11.9452, 3.01587, 2
-0.392466, 12.025, 2.57549, 8
4.63599, 11.6394, 4.78113, 5
4.83897, 11.6225, 3.88755, 7
1.92608, 11.7299, 4.13121, 7
-0.234885, 11.9371, 4.73092, 6
-4.69352, 12.612, 1.53249, 6
-3.99838, 12.1105, 3.35538, 8
4.32576, 11.589, 2.51395, 5
-3.91229, 12.2386, 3.54383, 2
-1.90883, 12.0222, 3.06434, 7
2.45966, 11.7683, 4.91093, 11
-4.89834, 12.5727, 1.29875, 5
4.8508, 11.6564, 4.36386, 6
0.702829, 11.979, 4.8848, 46
2.70056, 11.7196, 4.18238, 7
2.82527, 11.6342, 3.60721, 8
0.697047, 12.1381, 4.10508, 24
4.52103, 11.719, 4.28564, 10
0.313901, 11.9361, 4.62685, 4
2.30511, 11.773, 3.88552, 6
0.44888, 12.0586, 3.91194, 11
2.29006, 11.7375, 3.27204, 8
3.76668, 11.6557, 1.91576, 3
3.51359, 11.5995, 3.88728, 9
1.52102, 11.8913, 4.51049, 5
3.7557, 11.6452, 3.98943, 8
1.94826, 11.9044, 4.41623, 4
1.31529, 12.0251, 1.18226, 15
-4.87759, 12.4555, 2.42629, 8
-3.07835, 12.0664, 3.97619, 7
0.883805, 12.3123, 4.09719, 14
0.463001, 12.294, 1.07929, 24
3.47186, 11.7361, 2.77458, 3
1.36274, 11.8926, 3.29873, 2
2.1506, 11.7841, 3.92944, 11
1.05794, 11.8172, 4.87683, 10
-2.98867, 12.0206, 3.69684, 3
0.923197, 12.2393, 3.85552, 14
0.898412, 12.1579, 4.42719, 30
0.860989, 12.0719, 4.56209, 52
3.10668, 11.7893, 4.01157, 6
2.40418, 11.8033, 4.28915, 5
0.388269, 11.9225, 4.74237, 6
1.78031, 11.8308, 2.74201, 9
-0.239494, 11.8995, 3.3253, 6
-1.97374, 11.9705, 3.52173, 3
-1.09034, 11.8723, 4.32875, 8
-3.20596, 12.1536, 4.84552, 7
0.579351, 11.9999, 3.83952, 100
2.63839, 11.7967, 3.22821, 9
3.16734, 11.5427, 4.85025, 8
0.491149, 12.1666, 4.6547, 12
4.83573, 11.7069, 3.48546, 4
-4.26394, 12.23, 3.70634, 7
-4.82346, 12.2718, 3.27551, 8
0.6308, 12.0261, 1.06912, 100
-2.04593, 12.2068, 1.14608, 5
-3.70982, 12.1048, 4.67422, 7
4.35199, 11.6898, 3.88912, 8
-0.352142, 12.0786, 1.72265, 8
-3.55428, 12.0594, 2.73399, 5
-3.19095, 12.2528, 4.46503, 2
-1.08448, 11.9653, 3.9854, 3
1.12181, 11.8449, 3.15886, 9
-1.01795, 12.0511, 3.81068, 6
-3.22995, 12.0293, 4.08918, 7
4.85469, 11.7229, 3.26869, 3
0.485508, 12.2008, 4.46753, 26
-1.74904, 11.92, 4.49309, 3
0.317841, 11.8097, 3.9759, 6
1.20923, 11.7704, 2.60731, 3
1.48937, 11.7847, 4.50733, 3
-4.68401, 12.3125, 2.65526, 9
0.584555, 12.1541, 1.51728, 32
4.29539, 11.7129, 3.36299, 12
2.15765, 11.7931, 3.12552, 3
-4.69249, 12.2492, 2.40885, 9
-4.08038, 12.1937, 4.82834, 8
-2.0667, 11.9972, 4.06624, 2
2.86548, 11.678, 4.24973, 4
0.768051, 12.0275, 4.69813, 39
0.793971, 12.0744, 2.35463, 38
3.05869, 11.8055, 1.72872, 9
3.43097, 11.7466, 4.55153, 4
0.592725, 12.0072, 4.52655, 68
2.62046, 11.8365, 3.84618, 5
1.91742, 11.7957, 3.55186, 8
0.269663, 11.9617, 1.54217, 9
0.810463, 12.0419, 3.75679, 34
3.10234, 11.6483, 3.3407, 4
-1.46307, 11.9484, 3.72169, 7
-3.6644, 12.2023, 4.15473, 3
2.07259, 11.6986, 4.3528, 9
-4.87265, 12.6953, 2.66817, 8
0.0153818, 11.8474, 4.33814, 8
-1.97444, 11.945, 4.74258, 7
-0.522985, 11.9349, 4.22961, 11
2.93781, 11.7781, 3.63792, 6
0.778546, 12.0136, 4.31905, 54
-2.90648, 12.1192, 2.76662, 8
0.89586, 12.203, 3.13341, 29
-1.84197, 11.987, 3.25627, 5
8.40258, 34.2501, 5.18218, 13
13.1912, 34.0671, 5.30562, 63
8.32061, 34.3941, 4.95912, 62
8.55453, 34.404, 4.95848, 58
13.0807, 34.1457, 5.02906, 63
8.56741, 34.3219, 5.19435, 55
-12.621, 34.7702, 2.13367, 16
-8.53568, 35.0324, 2.79426, 49
-7.69904, 35.5597, 3.84368, 20
-13.25, 35.7641, 2.81718, 17
-12.5443, 34.927, 2.80349, 17
-11.9096, 35.3364, 2.50036, 44
-11.6118, 35.2653, 2.42567, 24
-12.1563, 35.6313, 3.35629, 63
-13.0453, 35.5798, 4.11425, 46
-11.9024, 35.5425, 2.59749, 18
-12.9457, 35.4486, 2.52133, 14
-8.98113, 34.9083, 1.36685, 16
-8.41215, 34.8348, 1.87243, 16
-8.94734, 34.9439, 3.8424, 13
-12.4942, 34.7951, 2.41764, 17
-11.2038, 35.8307, 2.57912, 17
-12.7359, 35.111, 2.96701, 14
-7.40683, 34.8469, 2.88422, 14
-8.02853, 34.9845, 2.91941, 46
-13.0175, 34.6528, 2.04516, 18
-13.1193, 34.6964, 1.97545, 19
-7.85898, 34.9155, 2.80731, 47
-12.1636, 34.9895, 2.24348, 19
-7.93558, 35.1114, 2.95058, 35
-7.60487, 39.9495, 4.2424, 19
-11.9512, 35.2343, 2.84139, 36
-7.37099, 34.9258, 2.65337, 11
-7.97189, 35.2865, 2.64728, 12
-8.80553, 35.2557, 2.53194, 48
-12.7045, 35.3122, 3.53984, 49
-7.07908, 34.6502, 3.57559, 15
-13.0672, 34.9875, 2.41129, 63
-7.28003, 34.7391, 2.70913, 49
-8.68912, 34.8878, 1.90007, 36
-12.7071, 35.5571, 4.36518, 65
-13.0672, 35.2537, 3.51215, 52
-12.4807, 35.5757, 4.8784, 50
-7.51407, 39.8395, 4.77777, 63
-7.89506, 35.1993, 3.66073, 33
-12.9965, 35.1882, 2.51363, 74
-8.23652, 35.2441, 4.68099, 33
-12.1085, 35.4805, 3.41429, 17
-8.01793, 34.8543, 2.02258, 12
-7.72392, 35.3399, 2.53629, 39
-8.30399, 34.6555, 2.77338, 37
-11.9846, 35.6227, 2.71998, 51
-5.95735, 34.6953, 4.23444, 14
-8.70374, 34.9392, 3.53237, 14
-7.5747, 39.8648, 4.43896, 49
-6.93085, 34.6811, 3.83551, 14
-12.3049, 34.8197, 2.18487, 11
-12.0447, 34.8185, 2.1636, 23
-8.57483, 34.9674, 3.17043, 14
-14.8283, 35.1893, 4.85259, 63
-8.29921, 35.0167, 2.92432, 15
-7.85585, 35.1825, 2.79307, 58
-5.8384, 35.0012, 2.4884, 24
-8.31554, 35.1125, 1.8024, 12
-8.2235, 34.8781, 3.27657, 16
-5.82652, 34.7879, 4.09121, 59
-8.87494, 35.0025, 3.09122, 63
-13.0945, 35.2506, 4.7774, 63
-7.90913, 35.8698, 3.24265, 17
-14.5466, 35.2078, 4.69957, 55
-12.8379, 35.7511, 4.38618, 46
-7.96974, 35.6064, 3.1272, 63
-7.95814, 35.3739, 3.81581, 65
-12.9823, 35.0175, 2.70464, 57
-12.929, 35.2873, 4.8015, 69
-12.1458, 35.3566, 4.50766, 25
-8.01695, 35.3785, 3.41061, 64
-8.10932, 35.3901, 4.1872, 62
-11.708, 35.7172, 2.47678, 44
-13.1078, 35.1042, 2.71928, 63
-7.92069, 35.4596, 3.28831, 49
-12.5121, 35.4349, 4.85068, 63
-8.8983, 35.2802, 4.48468, 63
-8.9637, 35.2654, 4.68532, 63
-12.8512, 35.5952, 4.66884, 63
-12.3827, 35.5225, 4.00418, 70
-7.59302, 36.9012, 2.75334, 12
-8.14202, 35.1681, 2.3211, 11
-8.78564, 35.1096, 2.87473, 32
-12.7187, 35.2162, 4.11806, 30
-12.4081, 35.4163, 4.15914, 49
-5.75181, 35.2499, 2.60689, 35
-8.00916, 35.5877, 3.52578, 57
-7.94901, 35.2996, 3.66491, 29
-6.401, 34.6548, 4.90995, 29
-13.13, 35.6983, 4.12989, 63
-14.7741, 35.0345, 4.49576, 62
-7.64583, 35.6429, 2.88129, 14
-12.832, 35.2158, 4.41678, 63
-8.85653, 35.13, 3.2531, 63
-8.64691, 35.2583, 4.59666, 63
-7.99012, 35.2135, 3.68893, 48
-8.67543, 35.0924, 3.8861, 49
-8.4267, 35.208, 4.13795, 34
-12.9657, 35.3318, 2.71813, 76
-12.6071, 35.4601, 2.39932, 24
-8.06136, 35.2073, 3.8341, 100
-14.6673, 35.1567, 3.74106, 61
-8.59213, 35.3042, 4.85277, 51
-13.0194, 35.3246, 3.53864, 55
-12.4482, 35.0059, 2.61483, 19
-13.0644, 35.1634, 3.36302, 63
-12.735, 35.0476, 2.31221, 37
-9.15646, 35.0658, 2.50924, 20
-12.0093, 35.9395, 3.9488, 62
-11.7788, 35.8932, 2.60958, 22
-13.0702, 35.4483, 2.87725, 63
-8.6455, 35.1882, 4.56212, 99
-7.88129, 35.5879, 3.13731, 63
-12.1086, 35.4632, 3.50728, 54
-12.5619, 35.4177, 4.64087, 52
-7.817, 35.5422, 2.86994, 57
-8.76182, 34.7215, 2.20293, 21
-12.5291, 35.3004, 1.76695, 66
-8.03109, 35.1678, 3.25169, 97
-9.08715, 34.7388, 2.06872, 43
-12.8003, 35.5364, 4.62666, 63
-12.1411, 35.3701, 4.34474, 17
-7.97884, 35.372, 3.05379, 19
-11.8979, 35.7447, 3.01453, 68
-7.78966, 35.3736, 2.2052, 12
-9.22697, 34.7319, 2.4555, 17
-11.8685, 35.8743, 2.67476, 22
-8.98448, 35.2218, 4.45804, 29
-7.79493, 35.6045, 2.56709, 18
-12.5453, 35.4873, 4.26274, 63
-7.80877, 35.5356, 2.80226, 63
-8.53501, 35.245, 4.55391, 29
-13.0199, 35.3, 2.93128, 55
-5.83025, 34.6548, 3.90034, 42
-8.16769, 35.4162, 4.66066, 42
-12.5388, 35.7953, 3.42545, 62
-12.8618, 35.1159, 3.0461, 63
-8.09445, 35.1163, 4.62244, 48
-12.855, 35.2147, 3.55932, 34
-8.93562, 34.991, 2.52867, 65
-8.93816, 35.1584, 4.03896, 29
-12.3711, 35.8467, 4.08622, 63
-14.8127, 34.9288, 4.91724, 56
-12.8237, 35.359, 3.90592, 61
-12.8794, 35.1771, 3.23621, 100
-12.0328, 35.4828, 3.0003, 63
-8.23142, 35.435, 1.91726, 11
-6.03404, 34.8663, 3.7036, 15
-8.35968, 35.2542, 4.52288, 49
-8.04534, 35.0728, 2.55056, 47
-8.23292, 35.5614, 4.20447, 30
-12.3979, 35.5211, 4.66525, 63
-12.902, 35.7407, 2.22245, 19
-8.62689, 34.78, 2.59185, 51
-7.1188, 34.6845, 3.28509, 28
-8.07871, 35.2614, 4.43713, 44
-13.0782, 35.2443, 2.85843, 20
-8.51642, 35.3416, 2.07107, 44
-12.2088, 35.4779, 3.32727, 50
-13.0407, 35.5967, 2.83497, 46
-6.01145, 34.6915, 3.28256, 28
-8.32777, 35.2986, 4.09433, 18
-12.6675, 35.2103, 4.8139, 71
-8.38069, 35.0167, 2.03411, 15
-8.81734, 34.9276, 3.31761, 53
-12.1542, 35.463, 4.44528, 63
-12.2478, 35.4021, 3.11792, 69
-5.97872, 34.6603, 4.49962, 44
-12.9841, 35.5999, 3.91981, 51
-8.29049, 34.6936, 3.28963, 37
-8.99635, 34.9916, 4.26331, 56
-8.38842, 34.6613, 2.16974, 36
-7.97664, 34.9774, 2.1357, 15
-12.0572, 35.6375, 3.18122, 40
-8.98521, 34.9471, 2.3746, 24
-7.49557, 34.6646, 2.04858, 34
-12.312, 35.8678, 3.79072, 35
-8.50166, 34.9321, 3.71717, 15
-12.9202, 34.9939, 2.22781, 19
-13.7489, 36.2743, 2.69739, 19
-12.1974, 35.6486, 3.70437, 49
-13.9026, 36.0639, 2.27352, 22
-9.03984, 35.3602, 2.21047, 21
-12.84, 35.255, 3.37003, 63
-8.38191, 35.2334, 4.72902, 63
-13.0673, 35.0579, 3.81397, 21
-9.18882, 34.9563, 2.75899, 63
-8.83714, 34.9308, 3.07904, 63
-4.99427, 34.7, 2.41569, 13
-8.89911, 34.8803, 3.5154, 49
-7.50159, 39.8877, 3.69825, 16
-7.80588, 35.131, 2.28851, 19
-14.1668, 35.441, 2.69083, 48
-12.8861, 35.2048, 4.83416, 63
-8.93448, 34.9776, 3.67293, 33
-12.1858, 35.4458, 3.6216, 64
-12.3052, 35.5508, 3.85683, 66
-9.01199, 35.2756, 3.80197, 55
-8.15771, 35.2485, 4.15895, 35
-8.19669, 35.2822, 3.7067, 98
-13.0774, 35.6796, 3.68566, 12
-6.20995, 34.7768, 4.10108, 45
-7.64082, 35.3525, 2.76511, 50
-8.89449, 34.8595, 2.97051, 35
-11.7167, 35.9165, 2.49583, 17
-8.80157, 35.1303, 4.08911, 35
-12.8843, 35.2225, 4.03611, 63
-8.96159, 35.0804, 2.58924, 53
-8.95736, 34.8462, 3.33563, 27
-12.6185, 35.4266, 4.01181, 35
-12.9111, 35.4303, 4.12422, 54
-9.00849, 35.2886, 4.13756, 63
-13.5985, 35.6797, 2.83172, 15
-7.94364, 35.6287, 3.15938, 50
-12.3071, 35.6629, 4.42602, 48
-13.2734, 35.5447, 3.41329, 46
-8.73424, 35.2185, 4.67433, 63
-7.72325, 35.2752, 4.3996, 49
-12.1852, 35.6229, 3.04406, 40
-12.0686, 35.2057, 2.15453, 31
-11.4906, 35.4535, 2.03866, 18
-12.8061, 34.9031, 2.41716, 42
-8.27272, 35.2617, 4.70095, 63
-12.3667, 35.5975, 4.85413, 63
-8.94337, 34.666, 2.58181, 63
-25.2858, -24.0994, 3.87444, 47
-26.3861, -24.0408, 2.49662, 16
-27.4913, -22.5931, 2.93316, 24
-25.236, -24.1041, 2.4304, 47
-26.7155, -23.7452, 2.54208, 36
-28.4556, -21.2994, 2.27459, 47
-27.7136, -22.4902, 1.7881, 39
-27.2893, -23.3005, 2.17164, 19
-28.1428, -22.2923, 2.65998, 50
-26.2655, -24.4981, 2.28976, 11
-26.8527, -22.6743, 2.15457, 57
-27.2351, -22.5738, 1.79559, 43
-28.5105, -22.6281, 2.36274, 49
-26.8869, -21.9796, 2.11732, 41
-27.2224, -23.2689, 2.31133, 21
-26.3871, -24.4692, 1.8613, 15
-27.2412, -21.543, 1.26229, 17
-25.415, -24.1625, 3.87535, 46
-28.6338, -22.5405, 2.72031, 55
-25.3378, -24.2873, 1.10013, 58
-25.17, -24.1477, 4.78869, 48
-25.0782, -24.4548, 4.67884, 12
-28.1408, -22.9896, 1.86312, 23
-25.3182, -24.1611, 3.25007, 55
-27.6512, -21.5483, 1.80853, 13
-25.1662, -24.1545, 2.20274, 64
-25.1894, -24.5396, 2.30446, 23
-28.4499, -20.7311, 1.60559, 13
-25.2611, -24.1627, 3.99623, 47
-28.2377, -20.9493, 1.64553, 17
-26.8107, -23.0085, 2.5924, 13
-25.3395, -24.122, 3.14608, 20
-27.4783, -21.256, 1.41015, 34
-27.1153, -23.3206, 1.92351, 17
-27.448, -21.9154, 1.80807, 26
-28.0561, -22.6575, 4.74719, 21
-28.2496, -20.8302, 2.24564, 17
-26.2546, -24.4701, 2.06646, 56
-27.6831, -22.527, 2.74154, 20
-25.3107, -24.2008, 3.50294, 65
-25.4832, -24.1458, 2.36659, 77
-28.3687, -22.0963, 2.42382, 23
-25.5828, -22.6835, 4.91044, 44
-25.4309, -24.1849, 1.07791, 53
-25.4953, -24.175, 2.51985, 47
-24.8873, -24.5949, 3.92322, 63
-26.6335, -23.8202, 2.87878, 44
-25.3088, -24.1125, 4.11841, 53
-26.5525, -22.5277, 2.00123, 14
-27.9072, -21.1332, 1.85527, 31
-24.9506, -24.404, 3.00274, 35
-25.4937, -24.1122, 1.50384, 46
-26.5016, -22.6793, 2.12153, 39
-25.6692, -22.9556, 4.938, 11
-25.3816, -24.1393, 2.82889, 62
-28.2264, -20.8238, 1.69718, 19
-27.8769, -21.5178, 1.73281, 11
-26.9014, -23.5334, 2.87629, 45
-27.1283, -23.1731, 2.58623, 14
-25.3666, -24.1702, 3.71659, 63
-27.1213, -22.7852, 1.46284, 22
-25.1559, -24.458, 1.72111, 52
-25.4767, -24.1458, 2.04325, 48
-25.2449, -22.9107, 4.88508, 37
-27.2439, -23.1753, 2.3954, 46
-28.2139, -20.736, 1.28836, 43
-25.0112, -24.4887, 2.0957, 44
-28.0851, -23.0163, 1.60368, 37
-25.326, -24.1475, 3.32257, 72
-28.18, -20.8521, 1.835, 42
-25.069, -24.2897, 2.30125, 57
-27.5821, -22.1082, 1.2877, 19
-25.359, -24.1684, 3.26363, 61
-25.0433, -24.4776, 4.76452, 46
-25.5073, -24.1507, 2.16985, 31
-26.4671, -22.7847, 2.3239, 14
-25.0123, -24.4382, 3.19254, 24
-25.4323, -24.1336, 1.93192, 43
-28.4263, -21.3089, 1.92461, 21
-25.0527, -24.3206, 4.39687, 56
-26.5538, -22.7066, 2.27882, 12
-27.1818, -22.7569, 1.62534, 47
-26.7619, -22.0825, 2.13328, 46
-25.1727, -24.1245, 4.52521, 70
-25.0772, -24.4815, 3.83636, 24
-26.829, -23.5608, 2.84049, 59
-25.0924, -24.1933, 4.79571, 59
-27.1136, -22.8659, 2.86012, 23
-27.2941, -22.5277, 1.62851, 47
-25.693, -22.6628, 4.77805, 43
-26.4868, -22.6378, 1.99125, 20
-27.2588, -21.2414, 1.62542, 20
-27.1803, -22.8087, 2.88342, 11
-26.8627, -23.6359, 2.84582, 46
-26.5978, -22.4009, 1.7879, 46
-26.6, -23.8626, 2.90289, 66
-25.0836, -24.3676, 4.0945, 56
-26.573, -22.6665, 2.09322, 14
-25.0831, -24.4314, 3.04363, 61
-25.6764, -24.1187, 1.41034, 14
-25.1423, -24.3233, 1.78055, 53
-25.1624, -24.5603, 1.03635, 71
-28.3257, -20.77, 1.59291, 34
-27.1893, -22.6369, 1.1419, 20
-26.8114, -22.9339, 2.83251, 34
-28.0019, -21.0444, 2.00803, 46
-28.466, -21.4237, 2.22987, 47
-25.1383, -24.4209, 1.52777, 60
-25.6785, -22.6472, 4.84795, 63
-26.506, -22.2192, 2.07569, 54
-26.1301, -24.2609, 2.95409, 34
-25.1971, -24.4573, 1.50208, 40
-26.3735, -24.04, 3.43192, 46
-25.0369, -24.3768, 2.25764, 26
-25.0046, -24.4111, 4.80147, 55
-25.3936, -24.1177, 3.22808, 62
-28.0073, -21.2081, 1.89694, 27
-25.0325, -24.4269, 4.54645, 16
-25.416, -24.1351, 2.98405, 34
-27.5706, -21.2246, 1.31558, 14
-25.042, -24.4849, 1.76279, 75
-28.2969, -22.0177, 1.97268, 45
-28.6837, -21.412, 2.25311, 24
-25.0978, -24.2506, 2.78844, 58
-27.4224, -22.2306, 1.34589, 13
-25.0756, -24.5539, 2.12779, 22
-27.688, -21.8476, 1.68257, 9
-25.1441, -24.4602, 3.36322, 12
-26.2201, -24.5477, 1.92609, 34
-26.9861, -23.478, 2.53402, 51
-28.3386, -22.0713, 2.39978, 45
-27.2174, -22.4546, 2.82001, 14
-27.1668, -22.72, 2.82585, 14
-27.0247, -23.3729, 2.84017, 44
-26.2421, -24.7221, 2.05932, 32
-25.1855, -24.5202, 1.1154, 53
-27.7405, -22.1695, 2.12541, 50
-26.2811, -24.4112, 1.98017, 46
-27.2263, -23.0054, 2.6666, 19
-27.2327, -22.6515, 2.06234, 34
-26.1913, -24.2067, 3.42078, 44
-26.3588, -24.1017, 2.9571, 33
-25.8989, -24.2803, 2.86658, 47
-25.0966, -24.477, 4.5662, 13
-26.5544, -23.9132, 2.70017, 38
-28.2279, -21.141, 1.21378, 32
-26.889, -22.9513, 2.37156, 21
-25.4166, -24.1488, 4.22388, 35
-25.0464, -24.1786, 2.07931, 43
-25.3907, -24.1555, 1.51352, 44
-27.2504, -22.0825, 1.73937, 19
-28.6628, -22.6304, 3.0904, 16
-26.2039, -24.6293, 1.15466, 21
-24.8435, -24.4902, 3.22498, 31
-25.5555, -24.1753, 1.83302, 14
-28.1661, -21.2263, 1.6142, 43
-27.2604, -21.1294, 1.56933, 33
-26.3005, -24.1599, 3.17338, 15
-26.5042, -23.9895, 2.8244, 15
-25.98, -24.2892, 2.76101, 44
-25.1204, -24.4648, 2.82112, 15
-25.6696, -24.2158, 1.26824, 17
-25.0402, -24.3337, 2.65474, 21
-25.5184, -24.1027, 1.12576, 18
-25.0269, -24.4929, 4.12112, 58
-25.4986, -24.196, 2.83923, 66
-27.5415, -22.6693, 2.45287, 16
-25.6468, -22.5315, 4.90312, 51
-26.8503, -22.8915, 2.56836, 49
-26.8399, -23.664, 1.73949, 36
-25.3999, -24.1928, 4.79268, 28
-27.4774, -22.2417, 1.41193, 16
-28.3737, -20.8536, 1.62568, 20
-27.7646, -21.9357, 1.59956, 20
-26.753, -22.0109, 2.29796, 19
-25.408, -24.1174, 3.80707, 19
-27.7332, -22.4677, 2.15573, 50
-27.1344, -22.5213, 2.34859, 44
-27.2123, -22.5759, 2.34847, 49
-25.7714, -24.2808, 2.79569, 31
-28.5485, -21.6463, 2.24459, 22
-27.5093, -22.5588, 2.53124, 38
-25.3547, -24.2187, 2.99496, 47
-26.2621, -24.179, 2.86031, 64
-25.0664, -24.1417, 2.07995, 40
-25.0342, -24.4618, 2.28176, 16
-25.5615, -24.2038, 1.00391, 28
-27.7771, -22.5241, 2.58908, 12
-25.336, -22.7476, 4.55657, 21
-28.6626, -22.528, 2.83476, 35
-27.4186, -22.2024, 1.37018, 25
-28.2262, -22.6432, 2.46792, 16
-26.7708, -21.9743, 2.21598, 44
-26.2709, -24.1666, 2.75564, 39
-27.252, -21.3858, 1.31947, 19
-28.7936, -21.4572, 2.33664, 15
-25.4346, -24.1441, 3.49583, 45
-28.6059, -21.5458, 2.3263, 21
-28.4047, -20.9778, 1.31616, 14
-28.3971, -22.0875, 2.55255, 14
-28.1849, -22.7157, 2.57718, 14
-25.1458, -24.5467, 2.95015, 12
-25.6599, -24.1701, 1.45363, 13
-27.5956, -21.0636, 1.26353, 15
-28.3262, -22.0651, 2.19381, 45
-27.6251, -21.3386, 1.73023, 27
-25.6399, -22.7492, 4.58619, 11
-26.5447, -22.5091, 1.85022, 19
-14.4248, -25.125, 1.14201, 8
-10.8309, -26.6925, 4.80216, 10
-6.77806, -28.1513, 1.05909, 12
-10.4657, -25.3099, 1.41423, 8
-11.3373, -25.2476, 1.83915, 10
-10.4758, -25.323, 1.86003, 10
26.1515, 21.2307, 1.55015, 11
27.6841, 16.1545, 1.76356, 10
26.6575, 19.0759, 3.30255, 11
26.8739, 18.7706, 2.68268, 63
26.8032, 18.7398, 2.89793, 22
26.8864, 18.7991, 3.65856, 13
26.7719, 19.0573, 1.75405, 14
26.7863, 18.7807, 2.58989, 35
26.8957, 18.6977, 3.36104, 50
26.9587, 18.4719, 3.84295, 41
31.7256, 15.7078, 4.67877, 8
26.6997, 18.7667, 4.02304, 11
26.7902, 18.8984, 1.71599, 26
26.7421, 18.7979, 3.5151, 31
26.7316, 18.6637, 3.53611, 38
26.7742, 18.8233, 3.10664, 39
26.7672, 18.9237, 2.41432, 70
26.934, 18.5835, 3.52889, 54
26.7407, 18.7104, 3.36833, 29
26.7784, 18.9128, 1.99365, 57
26.7118, 18.7608, 3.41079, 52
26.7992, 18.8918, 1.08073, 37
26.7188, 18.9196, 1.41909, 24
26.8826, 18.8328, 3.35092, 14
26.8576, 18.9052, 1.29481, 11
22.8717, 12.4309, 5.78346, 6
22.9281, 11.1727, 5.65267, 6
24.0903, 13.6262, 4.9542, 25
23.8203, 7.07264, 5.02848, 11
24.7344, 6.97768, 5.10696, 11
23.6346, 7.47519, 4.98646, 14
18.9961, 11.6403, 5.20847, 5
24.095, 9.44991, 5.84594, 12
18.8202, 5.06486, 5.7455, 3
23.2199, 13.1468, 5.28786, 18
15.0509, 11.133, 5.76524, 4
24.0265, 10.3147, 5.83351, 20
22.2956, 12.1258, 5.81611, 20
22.5585, 11.0577, 5.81903, 19
22.6394, 10.9027, 5.82667, 19
23.5863, 10.5567, 5.06626, 19
24.3357, 10.8141, 5.16973, 20
23.5832, 7.78253, 5.54274, 10
16.6357, 11.2, 5.70377, 15
22.3292, 12.3052, 5.55278, 10
22.2441, 10.0267, 5.45101, 10
23.7261, 10.1472, 5.61185, 10
23.0787, 9.44226, 5.51691, 10
23.7544, 7.09295, 5.50961, 10
24.1272, 6.91824, 5.54512, 10
24.6597, 7.02709, 5.60703, 10
24.2849, 9.21368, 5.20183, 11
24.5878, 8.19099, 5.20823, 11
16.6768, 11.159, 5.91709, 7
23.0149, 11.2411, 5.82968, 13
23.6018, 8.44824, 5.37609, 13
22.9203, 13.2802, 5.73786, 14
24.3965, 11.9196, 5.832, 31
23.1615, 12.3375, 5.36785, 15
23.3832, 8.80779, 5.75874, 42
23.2427, 10.4485, 5.61878, 40
22.4561, 12.8242, 5.32209, 21
24.1902, 10.6465, 5.50122, 21
23.9449, 10.4173, 5.90728, 41
23.7563, 8.80809, 5.15226, 34
23.2962, 9.74719, 5.40062, 30
23.2202, 12.0339, 5.67127, 9
19.1077, 11.5609, 5.31569, 20
22.799, 10.9756, 5.97051, 27
15.0776, 11.113, 5.53554, 3
23.3377, 13.3737, 5.74869, 14
24.325, 12.3509, 5.76816, 7
22.919, 9.98442, 5.41782, 25
23.537, 8.47462, 5.79167, 19
23.6967, 10.8444, 5.32183, 18
22.8534, 8.95312, 5.51633, 20
23.1465, 13.3182, 5.84613, 20
23.272, 13.3015, 5.85315, 10
24.3427, 11.8345, 5.89727, 38
16.3944, 11.2265, 5.4014, 11
23.6476, 11.4012, 5.91329, 42
24.4525, 10.9298, 5.08193, 12
22.8185, 8.95887, 5.61815, 28
23.6028, 8.81944, 5.60174, 41
23.1361, 8.27969, 5.6331, 12
22.8584, 12.6724, 5.98816, 28
23.0958, 10.0361, 5.06536, 41
19.012, 11.2991, 5.83605, 68
22.5497, 12.2091, 5.34728, 13
23.4827, 8.77818, 5.14284, 14
19.0437, 11.3378, 5.36213, 23
14.8793, 11.1823, 5.08581, 11
22.7968, 11.6509, 5.71896, 21
23.3914, 9.74305, 5.22189, 27
19.0519, 11.1967, 5.60907, 39
23.9794, 11.2877, 5.93136, 41
23.235, 9.70016, 5.88966, 19
23.2002, 10.4335, 5.52712, 16
24.4827, 11.4674, 5.95105, 10
22.6128, 8.75988, 5.02579, 34
23.0602, 8.89983, 5.74695, 24
23.969, 9.87037, 4.9895, 60
23.0261, 13.2397, 5.91254, 19
24.4644, 12.5352, 4.95823, 10
19.3066, 11.0694, 5.28193, 28
23.107, 11.4776, 5.76228, 20
22.8895, 10.4449, 5.47865, 10
24.4912, 11.1471, 5.45292, 52
16.6026, 11.1631, 5.09767, 4
23.3069, 9.74008, 5.82528, 12
23.2195, 11.2809, 5.23382, 28
24.2025, 10.0057, 5.04598, 20
24.5077, 12.577, 5.912, 37
16.9405, 11.1251, 5.4743, 9
24.6187, 11.8468, 5.97938, 31
24.7202, 11.254, 5.06605, 42
22.4079, 11.7052, 5.63334, 20
23.6185, 8.52164, 5.04284, 30
22.9455, 12.543, 5.47137, 10
23.5472, 12.6888, 5.48901, 31
23.6751, 12.2432, 5.49874, 31
23.9881, 7.70715, 5.03674, 15
24.2929, 12.4946, 5.69733, 15
19.2811, 11.0769, 5.18778, 38
23.2441, 11.4487, 5.46587, 12
23.58, 10.0156, 4.99281, 29
19.0715, 10.5644, 5.11258, 10
24.2281, 9.89496, 5.90354, 35
23.4306, 11.4917, 5.28485, 22
19.3596, 11.0988, 5.04401, 10
23.0753, 8.94507, 4.98613, 18
23.6092, 9.02265, 5.32667, 37
24.3619, 11.6397, 5.74007, 12
23.6139, 9.09616, 5.78347, 30
19.0257, 11.2177, 5.82726, 39
23.2925, 10.4408, 5.75041, 21
23.8804, 8.61752, 4.95059, 16
23.5691, 9.75463, 5.26482, 14
23.0712, 12.4534, 5.37724, 14
19.3598, 11.1151, 5.35907, 14
23.4034, 11.5365, 5.75611, 36
23.5832, 7.98145, 5.55599, 10
22.9977, 10.0365, 5.29617, 22
23.0998, 8.87474, 5.30658, 38
24.7061, 10.2751, 4.96966, 26
24.7362, 10.3636, 5.26876, 55
23.6668, 11.6659, 5.40409, 43
24.6521, 10.3128, 5.55653, 79
23.9798, 9.8462, 5.54962, 41
24.3085, 11.2213, 5.59096, 40
24.677, 13.1044, 5.42285, 15
22.2719, 12.5683, 4.97808, 19
19.3623, 11.1058, 5.90238, 20
23.7911, 9.56978, 5.33958, 25
23.4041, 8.94963, 5.99903, 36
22.5424, 12.7804, 5.16423, 31
23.3809, 8.98912, 5.77314, 42
23.2537, 10.4443, 5.50865, 41
22.9252, 10.5602, 5.82379, 21
24.4984, 10.7354, 5.8194, 22
23.8993, 10.7186, 5.14549, 8
23.0242, 10.1532, 5.3036, 33
23.1611, 12.2298, 5.84666, 21
24.0276, 9.6078, 5.83573, 31
24.3598, 10.7203, 5.7104, 26
23.4233, 12.0576, 5.57832, 22
15.4564, 11.2741, 5.20928, 3
22.8501, 10.153, 5.41612, 31
23.615, 8.92941, 5.07539, 65
23.548, 12.2025, 5.84294, 21
23.3515, 11.2089, 5.04924, 11
23.4555, 10.3398, 5.70301, 18
24.5995, 10.4032, 5.58011, 76
23.8546, 8.82267, 5.50311, 33
23.7478, 11.5456, 5.51135, 31
23.5081, 8.91356, 4.97906, 48
22.6434, 10.1502, 5.13275, 18
22.8701, 10.7091, 5.97342, 27
23.7998, 9.26152, 5.81198, 31
23.547, 12.4203, 5.49606, 17
22.8534, 10.354, 5.05236, 30
24.5623, 10.9898, 5.95606, 42
22.9916, 10.7966, 5.82805, 10
22.5732, 11.8155, 5.91789, 23
24.5321, 11.3335, 5.40951, 40
23.7291, 10.7423, 5.15847, 29
23.2198, 12.2616, 5.87434, 40
14.8972, 11.2715, 5.45689, 9
22.8067, 11.8528, 5.99086, 8
23.5212, 9.76386, 5.28702, 17
19.0559, 11.389, 5.90351, 19
15.2011, 11.1982, 5.71345, 14
23.2011, 13.721, 5.59877, 26
23.295, 12.5885, 5.8635, 19
23.5136, 12.6075, 5.65981, 27
23.1291, 8.82143, 5.55743, 11
23.9146, 9.5949, 5.01854, 28
24.2236, 10.3575, 5.90739, 35
18.792, 5.402, 5.99648, 11
22.9614, 11.5835, 5.92746, 43
23.3289, 9.80821, 5.2438, 28
19.0544, 11.4422, 5.71911, 30
15.4011, 11.1834, 5.30881, 3
22.9687, 12.5998, 5.92013, 30
23.3214, 10.5742, 5.90181, 43
24.3167, 10.0867, 4.99733, 9
17.6046, 11.1726, 5.62461, 10
23.7622, 11.2452, 5.46028, 18
23.3515, 11.4298, 5.16425, 28
24.3726, 10.3945, 5.68871, 59
23.5779, 8.83879, 5.2718, 42
24.1761, 11.3076, 5.74891, 34
22.7967, 10.449, 5.98456, 31
23.7719, 9.29947, 5.90318, 31
23.1207, 10.009, 5.62841, 37
22.4737, 12.025, 5.11004, 26
24.4494, 12.61, 5.95097, 39
23.4084, 9.85927, 5.6489, 38
23.9049, 9.71647, 5.49234, 20
23.5746, 7.81499, 5.12852, 40
23.7449, 12.4585, 5.53815, 40
24.6912, 11.0388, 5.07464, 39
22.8022, 10.1444, 5.08594, 24
24.0041, 11.3963, 5.38011, 38
18.9818, 11.3269, 5.17211, 30
23.348, 8.90164, 5.47583, 25
23.8641, 12.5629, 5.20355, 18
16.9594, 11.2117, 5.25475, 10
23.3661, 11.8009, 5.81042, 30
15.62, 11.1257, 5.05346, 7
23.2344, 8.80011, 5.42928, 32
24.3612, 11.9081, 4.96177, 41
23.2708, 12.1469, 5.85878, 44
24.0206, 11.5691, 5.40658, 31
24.0297, 13.0303, 5.73131, 15
18.2022, 11.1387, 5.0523, 10
