X,Y,Z,I,
12.639, 19.863, 1.83109, 0
13.5465, 18.9862, 1.96661, 0
13.977, 18.7161, 4.90149, 0
12.7496, 20.0817, 2.79685, 0
13.837, 18.9911, 1.36923, 0
12.7963, 20.1147, 2.04659, 0
12.7261, 20.1077, 1.30018, 0
13.5198, 18.9519, 3.84378, 0
6.6587, 19.8545, 3.32231, 0
12.6646, 19.9564, 4.48825, 0
13.1494, 19.4457, 4.91313, 0
7.10601, 19.0637, 3.5527, 0
12.6435, 19.9395, 2.21261, 0
6.77475, 19.6346, 3.34548, 0
12.8823, 19.7273, 4.44493, 0
13.4074, 19.3954, 3.56262, 0
12.8889, 19.7466, 2.93112, 0
13.3983, 19.4768, 2.06151, 0
7.46363, 19.2151, 3.46637, 0
12.8969, 19.7617, 2.17848, 0
13.4231, 19.5583, 1.30814, 0
13.6708, 16.3581, 3.49705, 0
7.47766, 19.2193, 3.38969, 0
12.991, 19.8345, 1.79931, 0
13.6937, 19.0402, 1.27054, 0
12.7578, 20.1059, 1.67279, 0
7.51547, 19.3894, 3.44309, 0
7.53313, 19.3941, 3.10704, 0
13.6676, 19.2798, 2.76974, 0
7.46591, 19.221, 3.13188, 0
12.9022, 19.772, 1.42607, 0
13.4015, 19.4705, 4.33487, 0
13.701, 16.362, 3.01889, 0
7.46806, 19.2266, 2.79874, 0
12.851, 19.7658, 1.05462, 0
13.4095, 19.4405, 3.94853, 0
13.4122, 19.4064, 2.43064, 0
13.4116, 19.4512, 1.68048, 0
13.6672, -5.3338, 1.46807, 0
13.6755, -11.1194, 1.14986, 0
13.5363, -11.0814, 3.37952, 0
13.5998, -13.715, 2.94986, 0
13.6888, -11.0351, 3.71382, 0
13.4511, -5.28961, 2.91309, 0
13.4099, -5.07538, 2.93083, 0
13.3864, -11.295, 2.57811, 0
13.678, -11.0492, 4.78646, 0
13.5181, -5.37349, 3.77997, 0
13.4404, -5.43857, 3.35845, 0
13.4082, -5.40401, 3.58559, 0
13.4285, -5.4168, 2.42826, 0
13.1349, -11.5754, 4.6497, 0
13.1384, -11.5585, 3.7855, 0
13.171, -11.5456, 1.52106, 0
13.34, -11.2967, 2.61316, 0
13.3897, -11.2979, 2.89407, 0
13.3176, -5.57483, 4.64679, 0
13.3519, -5.61279, 3.70346, 0
13.3812, -5.59631, 2.06616, 0
13.3793, -5.57859, 1.6003, 0
13.3069, -5.35854, 3.43642, 0
13.4206, -5.25224, 4.14047, 0
13.4314, -5.2576, 2.73678, 0
13.6904, -10.9049, 4.19251, 0
13.7447, -10.9133, 4.77794, 0
13.7785, -10.9201, 3.91518, 0
13.7562, -10.9146, 2.49228, 0
13.7002, -10.9207, 1.64942, 0
13.0256, -11.5813, 4.37323, 0
13.0415, -11.5984, 4.08839, 0
13.0629, -11.5611, 2.09888, 0
13.0722, -11.5723, 1.81898, 0
13.0441, -11.5389, 2.65913, 0
13.0924, -11.5958, 1.25894, 0
13.0813, -11.5831, 1.53903, 0
13.0535, -11.55, 2.37888, 0
13.2487, -11.334, 2.94277, 0
13.2389, -5.66218, 1.92679, 0
13.155, -5.64208, 4.2767, 0
13.2306, -5.66019, 2.15887, 0
13.1803, -5.64808, 3.56232, 0
13.3392, -5.34868, 2.62787, 0
13.3298, -5.34669, 2.86113, 0
13.3476, -11.1346, 2.59502, 0
13.634, -10.9215, 2.89066, 0
13.4027, -4.96537, 2.56517, 0
13.4805, -14.2859, 3.56701, 0
13.3465, -11.2791, 4.63134, 0
13.6123, -11.0285, 1.20679, 0
13.5785, -11.008, 2.89202, 0
13.5558, -10.9942, 4.03907, 0
13.5745, -7.56973, 2.77292, 0
13.5326, -8.20212, 3.48112, 0
13.3482, -5.22803, 4.54524, 0
13.4203, -5.23867, 2.18814, 0
13.5786, -14.4439, 3.07829, 0
13.288, -11.2756, 3.92643, 0
13.3822, -11.2942, 1.20539, 0
13.5896, -13.6773, 2.75234, 0
13.5414, -10.922, 3.80494, 0
13.684, -11.0526, 2.89134, 0
13.3431, -5.22579, 4.79493, 0
13.438, -11.3357, 1.8196, 0
13.402, -11.3053, 4.69809, 0
13.4405, -11.3378, 1.53839, 0
13.3946, -5.22863, 3.85283, 0
13.5723, -10.9894, 2.36962, 0
13.3553, -5.55107, 1.1357, 0
13.3387, -5.29842, 1.87316, 0
13.4337, -5.24391, 1.26167, 0
13.337, -11.1867, 1.00125, 0
13.5682, -10.986, 2.65164, 0
13.3444, -5.29907, 1.41039, 0
13.3862, -5.22536, 4.59357, 0
13.4177, -11.3185, 3.52791, 0
13.4282, -5.24174, 1.72352, 0
13.2842, -11.267, 3.63479, 0
13.403, -5.2319, 3.36984, 0
13.5442, -10.9666, 4.66962, 0
13.4014, -5.23127, 3.61114, 0
13.5761, -10.9925, 2.08861, 0
13.4318, -5.24315, 1.49236, 0
13.2854, -11.2625, 3.34647, 0
13.5985, -8.50302, 3.10414, 0
13.3227, -5.29863, 3.76896, 0
13.3895, -5.22663, 4.34458, 0
13.3471, -5.29934, 1.17991, 0
13.5798, -10.9954, 1.80847, 0
13.4118, -11.3136, 3.81697, 0
13.4088, -11.3111, 4.10867, 0
13.416, -5.23697, 2.4218, 0
13.5774, -14.4468, 3.39023, 0
13.2882, -11.2814, 4.2193, 0
13.582, -10.9972, 1.52895, 0
13.5493, -10.9708, 4.08326, 0
13.434, -11.3323, 2.10139, 0
13.4018, -5.25199, 1.22483, 0
13.3843, -5.38534, 4.75767, 0
13.3975, -5.2501, 1.45478, 0
13.5469, -10.9688, 4.37537, 0
13.4297, -11.3286, 2.38403, 0
13.3225, -5.29771, 3.5262, 0
13.3169, -5.29891, 4.50766, 0
13.3324, -5.29754, 2.33911, 0
13.2964, -11.2397, 1.64851, 0
13.1647, -5.64462, 4.03759, 0
13.6288, -10.9397, 4.40467, 0
13.292, -11.2466, 2.20953, 0
13.3023, -11.2341, 1.09082, 0
13.2142, -5.65628, 2.62414, 0
13.5269, -10.9219, 4.09147, 0
13.1375, -5.63782, 4.75985, 0
13.3243, -11.1484, 2.40198, 0
13.6841, -11.0925, 2.54613, 0
13.2741, -5.02802, 4.25618, 0
13.3103, -5.04248, 1.44256, 0
13.3142, -5.03986, 1.21379, 0
13.8181, -10.9585, 1.36719, 0
13.3306, -5.2378, 3.31861, 0
13.3264, -5.21023, 1.90766, 0
13.366, -5.2739, 4.54739, 0
13.5973, -10.9396, 1.26686, 0
13.3268, -5.21895, 2.37314, 0
13.5993, -10.928, 4.69158, 0
13.6202, -10.9392, 2.67475, 0
13.5632, -10.9348, 1.82368, 0
13.5793, -10.9364, 1.54514, 0
13.5941, -7.91912, 2.79649, 0
13.7153, -10.9158, 1.92947, 0
13.0093, -11.5638, 4.65896, 0
13.3468, -11.1392, 3.79289, 0
13.3439, -11.1487, 4.08231, 0
13.3432, -11.1721, 4.66911, 0
13.5717, -14.1585, 3.6938, 0
13.3439, -11.1606, 4.37463, 0
13.384, -11.2336, 3.51991, 0
13.2758, -5.03959, 1.9905, 0
13.6562, -11.1043, 1.90038, 0
13.5407, -8.24385, 2.7233, 0
13.2979, -5.24065, 3.64466, 0
13.6708, -11.0695, 1.98758, 0
13.3023, -5.24808, 3.88685, 0
13.3143, -5.25855, 4.13288, 0
13.34, -5.26926, 1.99863, 0
13.3514, -5.27931, 2.23359, 0
13.297, -11.3, 4.81512, 0
13.4151, -5.28701, 1.66525, 0
13.5149, -10.9295, 2.41086, 0
13.5304, -10.9325, 2.13072, 0
13.3823, -5.22383, 4.84476, 0
13.3265, -11.1789, 3.25398, 0
13.3669, -11.2514, 4.42247, 0
13.3295, -11.1911, 3.54132, 0
13.2552, -5.33131, 4.76174, 0
13.3147, -5.21023, 2.58964, 0
13.6717, -10.9434, 2.04445, 0
-11.5717, -5.30985, 4.31906, 0
-11.5962, -5.30803, 3.9349, 0
-11.6219, -5.30428, 2.48418, 0
-11.556, -13.9168, 2.81461, 0
-11.5713, -7.64935, 2.74438, 0
-11.5683, -5.31912, 2.20017, 0
-11.3596, -11.0966, 3.17514, 0
-11.5483, -8.03775, 2.78595, 0
-11.5534, -14.4854, 3.00126, 0
-11.5487, -14.5208, 3.29774, 0
-11.5707, -11.1284, 3.72096, 0
-11.5008, -14.6052, 3.32787, 0
-11.5636, -5.01286, 4.12181, 0
-11.5503, -11.0784, 3.89883, 0
-11.5213, -14.5219, 3.64639, 0
-11.333, -5.29666, 2.75444, 0
-11.3058, -11.1634, 3.68956, 0
-11.5196, -13.8279, 2.82426, 0
-11.4169, -5.00628, 3.49623, 0
-11.4995, -14.5884, 3.62681, 0
-11.6834, -10.6909, 4.26435, 0
-11.7007, -10.7046, 3.75052, 0
-11.2473, -5.30445, 2.26047, 0
-11.1965, -5.26657, 2.05907, 0
-11.2046, -5.26395, 1.26935, 0
-11.1927, -5.24509, 1.07313, 0
-11.5687, -11.0812, 4.67988, 0
-11.254, -10.9615, 3.8477, 0
-11.3632, -10.9931, 2.5831, 0
-11.296, -10.9706, 2.32189, 0
-11.3166, -10.975, 1.56434, 0
-11.065, -11.2203, 3.82583, 0
-11.551, -5.00772, 2.68858, 0
-11.0973, -11.2129, 1.02802, 0
-11.5788, -5.30928, 2.858, 0
-11.1083, -11.2554, 1.2789, 0
-11.5614, -5.31369, 2.56988, 0
-11.202, -4.96454, 3.0204, 0
-11.181, -5.02565, 2.61948, 0
-11.1717, -5.15206, 4.45579, 0
-11.1785, -5.16526, 4.67037, 0
-11.2423, -5.22155, 4.26816, 0
-11.2073, -5.18506, 3.84082, 0
-11.2321, -5.21351, 3.23244, 0
-11.2012, -5.15919, 1.43606, 0
-11.2415, -5.22544, 2.4284, 0
-11.2098, -5.18196, 1.83, 0
-11.2468, -5.20756, 1.04154, 0
-11.5909, -4.99193, 1.80152, 0
-11.589, -4.99353, 1.59788, 0
-11.3804, -5.31363, 1.59484, 0
-11.3532, -5.28053, 3.23714, 0
-11.3742, -5.30573, 1.99942, 0
-11.3349, -5.2614, 4.09047, 0
-11.3394, -5.26618, 3.87437, 0
-11.3764, -5.30926, 1.7966, 0
-11.3899, -5.32309, 1.19327, 0
-11.6167, -11.0703, 4.49074, 0
-11.5762, -11.0711, 2.3578, 0
-11.2229, -11.1315, 3.51969, 0
-11.4007, -5.21707, 1.09691, 0
-11.1465, -11.6754, 2.0168, 0
-11.3856, -5.21015, 2.10552, 0
-11.3533, -11.2586, 4.0135, 0
-11.354, -5.19571, 4.43281, 0
-11.3742, -11.2793, 1.91526, 0
-11.7244, -10.7188, 2.21936, 0
-11.2208, -11.149, 4.83251, 0
-11.3836, -11.2887, 1.14662, 0
-11.6783, -10.7063, 1.45477, 0
-11.208, -11.0982, 4.29519, 0
-11.3443, -11.2497, 4.55377, 0
-11.4846, -10.8948, 3.80352, 0
-11.5405, -13.5479, 2.8251, 0
-11.2194, -11.1095, 3.26015, 0
-11.4057, -10.873, 4.57293, 0
-11.139, -11.6337, 1.24747, 0
-11.3715, -11.2767, 2.17305, 0
-11.3811, -11.2861, 1.40229, 0
-11.7545, -10.7435, 1.71074, 0
-11.2138, -11.1229, 4.56235, 0
-11.3438, -11.2491, 4.82889, 0
-11.4288, -10.8771, 4.31467, 0
-11.3947, -5.21429, 1.49827, 0
-11.1381, -11.6522, 2.27079, 0
-11.3601, -11.2653, 3.21535, 0
-11.1609, -11.7051, 1.76363, 0
-11.3831, -5.209, 2.30986, 0
-11.0648, -11.6446, 3.29861, 0
-11.3491, -11.2544, 4.28269, 0
-11.646, -11.019, 1.14668, 0
-11.3575, -5.19731, 3.99269, 0
-11.1122, -11.6288, 4.90242, 0
-11.6294, -11.0032, 2.69217, 0
-11.3212, -11.2988, 4.75621, 0
-11.6378, -11.0112, 1.91558, 0
-11.5013, -4.98908, 2.60903, 0
-11.1166, -11.6328, 3.56517, 0
-11.3236, -11.3065, 4.48372, 0
-11.6432, -11.0163, 1.40234, 0
-11.356, -5.19662, 4.21169, 0
-11.6263, -11.0003, 2.95332, 0
-11.388, -5.21127, 1.90217, 0
-11.3568, -11.2621, 3.4793, 0
-11.6108, -10.9856, 4.28295, 0
-11.3677, -5.20195, 3.34973, 0
-11.1082, -11.5942, 4.08613, 0
-11.635, -11.0086, 2.17342, 0
-11.3323, -11.2803, 2.35811, 0
-11.2652, -10.9465, 4.89243, 0
-11.1353, -11.6156, 1.50043, 0
-11.5827, -4.99567, 1.19278, 0
-11.5006, -11.1574, 3.00276, 0
-11.5491, -11.1676, 2.22779, 0
-11.5765, -8.18907, 2.75948, 0
-11.5213, -11.1646, 1.7108, 0
-11.5001, -11.1679, 1.19909, 0
-11.4562, -5.49143, 2.26781, 0
-11.3609, -5.40284, 3.70907, 0
-11.3239, -5.11152, 4.72944, 0
-11.3863, -5.43347, 3.08165, 0
-11.3712, -5.199, 3.04893, 0
-11.1125, -11.6137, 3.82508, 0
-11.5556, -5.09922, 4.81831, 0
-11.1199, -11.6523, 4.63686, 0
-11.5301, -10.9207, 3.55267, 0
-11.269, -11.2156, 4.05496, 0
-11.3769, -11.4176, 2.77349, 0
-11.1733, -11.4071, 3.00006, 0
-11.3903, -11.3315, 3.01358, 0
-11.4255, -10.8932, 2.51099, 0
-11.3563, -5.69671, 2.13999, 0
-11.2171, -5.47553, 3.49337, 0
-11.3755, -5.70286, 1.54171, 0
-11.3633, -5.69906, 1.94027, 0
-11.6, -4.99338, 2.00735, 0
-11.2205, -5.42286, 4.73926, 0
-11.2315, -5.4652, 2.88984, 0
-11.2974, -5.71051, 2.30665, 0
-11.2732, -5.68138, 3.31325, 0
-11.2204, -5.62003, 3.70925, 0
-11.58, -5.3238, 1.82942, 0
-11.2262, -5.64755, 4.55166, 0
-11.2257, -11.1185, 1.22949, 0
-11.5526, -5.2986, 1.36535, 0
-11.2241, -5.64026, 4.33797, 0
-11.5929, -5.32013, 1.34054, 0
-11.2206, -5.62617, 3.91674, 0
-11.6235, -4.99855, 2.42418, 0
-11.4415, -5.34353, 4.58031, 0
-11.4411, -10.9102, 1.49959, 0
-11.4187, -5.33874, 4.7886, 0
-11.5975, -5.0139, 3.91931, 0
-11.2425, -11.1901, 1.98871, 0
-11.2269, -11.1379, 1.48148, 0
-11.4748, -10.9056, 2.00816, 0
-11.5585, -7.69427, 2.78456, 0
-11.5074, -10.9196, 1.75695, 0
-28.6717, -32.3732, 1.02722, 0
13.4912, -4.9771, 5.91591, 0
13.214, -5.32237, 5.74763, 0
13.5283, -10.9537, 5.87036, 0
13.6601, -11.0123, 5.64519, 0
13.2802, -5.5521, 5.36433, 0
13.2831, -5.21317, 5.78738, 0
13.2812, -5.20305, 5.2705, 0
13.2813, -5.19847, 5.01676, 0
13.3089, -5.29923, 5.52641, 0
13.6683, -11.02, 5.28839, 0
13.1299, -5.63623, 5.00431, 0
13.5164, -10.9094, 5.86756, 0
13.3372, -11.2752, 5.5302, 0
13.3394, -11.2757, 5.22754, 0
13.3344, -11.2742, 5.83561, 0
13.2404, -11.1985, 5.99403, 0
13.3933, -11.298, 5.2963, 0
13.3084, -5.29724, 5.00997, 0
13.541, -10.9641, 4.96614, 0
13.246, -11.1918, 5.38453, 0
13.5332, -10.9577, 5.56641, 0
13.398, -11.3019, 4.99605, 0
13.5268, -10.9766, 5.51721, 0
13.3868, -11.2925, 5.90635, 0
13.3927, -11.2975, 5.60097, 0
13.1428, -11.5985, 5.53087, 0
13.3463, -11.1868, 4.96739, 0
12.9856, -11.5367, 5.23688, 0
13.4037, -5.09113, 5.13141, 0
13.5937, -4.95089, 5.38064, 0
12.9647, -11.512, 5.82244, 0
13.3914, -5.37027, 5.47804, 0
13.6826, -10.9, 5.35288, 0
13.5742, -10.9198, 4.9812, 0
13.555, -10.9163, 5.27455, 0
13.7425, -10.9117, 5.95846, 0
13.7956, -10.9364, 5.08081, 0
13.429, -5.40824, 5.24863, 0
13.4321, -5.41303, 5.73816, 0
13.3887, -5.37221, 5.96803, 0
13.548, -10.913, 5.60277, 0
13.2435, -11.1954, 5.68784, 0
13.4105, -5.06452, 5.60096, 0
1.36886, 19.1046, 5.34313, 0
1.38253, 19.115, 5.65468, 0
0.685679, 19.1359, 5.20756, 0
1.32079, 19.0392, 5.04543, 0
0.597618, 19.201, 5.46971, 0
0.636807, 19.2487, 5.79529, 0
1.31305, 19.0257, 5.6951, 0
1.63349, 19.1212, 5.08929, 0
1.46786, 19.0056, 5.2105, 0
0.987399, 19.0884, 5.46389, 0
1.31695, 19.0327, 5.36899, 0
0.802722, 19.1416, 5.13347, 0
1.60574, 19.0391, 5.72, 0
0.206246, 19.2931, 5.14509, 0
0.995212, 19.0418, 5.69062, 0
1.1875, 19.12, 5.13305, 0
1.66012, 19.0461, 5.1598, 0
1.18679, 19.1085, 5.78695, 0
0.998456, 19.0392, 5.36188, 0
0.802346, 19.1326, 5.78817, 0
1.18717, 19.1146, 5.45872, 0
1.00199, 19.0426, 5.03773, 0
1.44886, 18.9739, 5.52496, 0
0.284532, 19.2488, 5.51673, 0
0.186596, 19.3324, 5.79266, 0
1.65138, 19.0158, 5.37195, 0
0.523158, 19.3713, 5.14065, 0
13.3087, -17.3687, 5.57229, 0
13.4273, -17.386, 5.76435, 0
13.3573, -17.2523, 5.11023, 0
13.3396, -17.2428, 5.02127, 0
13.3346, -17.2399, 5.38541, 0
12.9003, -17.5052, 5.6001, 0
13.3692, -17.326, 5.52659, 0
12.9112, -17.5306, 5.2434, 0
12.8898, -17.4804, 5.9585, 0
13.2839, -17.2605, 5.52861, 0
13.5594, -17.0364, 5.83427, 0
13.1797, -17.3132, 5.90692, 0
13.3962, -17.2787, 5.91179, 0
13.5691, -17.0485, 5.10333, 0
13.286, -17.2506, 5.16061, 0
13.5629, -17.0408, 5.46694, 0
13.349, -17.2417, 5.84272, 0
13.7381, -16.973, 5.95497, 0
13.7834, -17.0054, 5.59949, 0
13.6554, -16.9347, 5.92253, 0
13.6782, -16.9469, 5.56161, 0
13.7234, -16.9341, 5.4965, 0
12.9653, -17.5808, 5.60712, 0
13.7483, -16.9694, 5.53517, 0
12.9771, -17.6322, 5.98331, 0
13.7218, -17.1236, 5.17175, 0
13.621, 10.2194, 3.59452, 0
13.6094, 10.2195, 2.8825, 0
13.6003, 9.74423, 3.61204, 0
13.613, 10.4503, 2.90483, 0
13.7227, 6.84265, 3.04389, 0
13.6821, 6.82065, 4.04827, 0
13.6394, 6.84862, 2.93661, 0
13.6855, 6.8282, 4.16716, 0
13.6501, 9.48547, 3.57165, 0
13.6649, 9.92178, 2.82162, 0
13.6511, 6.84233, 3.69232, 0
13.6537, 6.82229, 4.6614, 0
13.7056, 6.81628, 4.35882, 0
13.674, 10.3683, 2.99677, 0
13.6438, 9.7674, 3.54754, 0
13.4113, 7.3988, 1.19336, 0
13.3648, 7.39039, 2.88272, 0
13.3153, 7.37715, 4.57096, 0
13.3572, 7.42958, 4.09268, 0
13.2898, 13.399, 1.4951, 0
13.5035, 7.1757, 2.96818, 0
13.7673, 12.679, 2.88568, 0
13.3476, 7.21138, 3.83138, 0
13.7063, 12.7612, 3.94738, 0
13.7978, 12.9431, 3.18753, 0
13.3844, 8.07055, 2.70455, 0
13.6039, 6.66328, 4.83938, 0
13.6397, 6.69797, 1.07667, 0
13.6039, 6.69287, 1.56055, 0
13.3447, 7.46474, 4.71029, 0
13.8294, 12.7359, 4.84342, 0
13.7248, 12.7004, 4.18838, 0
13.7095, 12.6985, 4.49804, 0
13.7445, 12.7065, 3.88171, 0
12.8824, 13.898, 4.45909, 0
13.7459, 12.7216, 2.05221, 0
13.7297, 12.7184, 2.35205, 0
13.764, 12.7266, 1.75314, 0
13.314, 7.00825, 4.92676, 0
13.8026, 12.7388, 1.15597, 0
13.4086, 13.3762, 4.60034, 0
13.5259, 12.9289, 3.87028, 0
13.5252, 12.916, 3.55996, 0
13.8422, 12.7486, 2.67055, 0
13.782, 12.7315, 1.45437, 0
12.871, 13.95, 2.02344, 0
12.8626, 13.8656, 3.22762, 0
13.4132, 13.4148, 4.91714, 0
12.8698, 14.3886, 2.2498, 0
13.593, 6.78793, 1.45537, 0
13.579, 6.78606, 1.94228, 0
13.6007, 6.7892, 1.21281, 0
13.1343, 7.89342, 4.53102, 0
13.565, 6.78423, 2.43229, 0
13.6135, 12.7208, 4.86291, 0
13.143, 7.91903, 4.28264, 0
13.5709, 6.78456, 2.18665, 0
13.5564, 6.78251, 2.67845, 0
13.3893, 7.04672, 3.4204, 0
13.3875, 7.04852, 3.67363, 0
13.3466, 6.82768, 1.90822, 0
13.3769, 7.05407, 4.70619, 0
13.4712, 7.12602, 1.45615, 0
13.6019, 12.8254, 4.79345, 0
13.579, 6.70763, 3.673, 0
13.6809, 12.8537, 1.73631, 0
13.3435, 7.2608, 4.43494, 0
13.5363, 6.67342, 4.29789, 0
13.664, 12.8468, 2.33738, 0
13.1173, 7.88678, 3.77276, 0
13.6378, 12.728, 4.55463, 0
13.1328, 7.93594, 3.28229, 0
13.3951, 7.13639, 1.32786, 0
13.587, 12.9419, 2.24355, 0
13.5899, 6.69224, 1.80321, 0
13.5201, 6.68339, 1.01655, 0
12.8634, 13.9005, 2.32201, 0
13.4121, 13.3952, 3.98994, 0
13.6542, 6.86799, 2.57016, 0
13.3652, 7.12047, 3.54685, 0
13.6567, 6.86929, 2.32187, 0
13.5646, 12.9207, 4.07522, 0
13.5464, 13.2013, 3.26601, 0
13.2196, 8.31494, 4.47656, 0
13.369, 7.12249, 3.29524, 0
13.5961, 12.9507, 1.34296, 0
13.0779, 13.6575, 4.4225, 0
13.2131, 8.34204, 3.22055, 0
13.3703, 13.1701, 3.77179, 0
13.3388, 7.03529, 3.39579, 0
13.3415, 6.83178, 2.15094, 0
13.3817, 7.12922, 2.30292, 0
12.9109, 13.9752, 4.78553, 0
13.4016, 13.2009, 1.04573, 0
13.0884, 14.0366, 4.34962, 0
13.5796, 12.9349, 2.84847, 0
13.3875, 7.13235, 1.81367, 0
13.3055, 6.98925, 4.40207, 0
12.8451, 13.9142, 1.41764, 0
13.3588, 13.1587, 4.70683, 0
13.3944, 13.1938, 1.64489, 0
13.1932, 8.36885, 1.01026, 0
13.6348, 6.85823, 3.83108, 0
13.2036, 8.30066, 3.71344, 0
13.3679, 13.1677, 4.08186, 0
13.5926, 12.9473, 1.64234, 0
13.113, 13.6521, 4.73256, 0
13.5997, 12.9541, 1.04409, 0
13.5627, 12.9188, 4.38699, 0
13.162, 7.95063, 4.03693, 0
13.1184, 14.0762, 2.52014, 0
13.2388, 13.4567, 3.64859, 0
13.3754, 13.1751, 3.46425, 0
13.35, 7.04827, 3.65105, 0
13.6716, 6.69445, 2.55394, 0
13.5834, 12.9385, 2.54546, 0
13.589, 12.9439, 1.9424, 0
13.3487, 8.09277, 1.23438, 0
13.3563, 7.11572, 4.05503, 0
13.5129, 7.48861, 3.908, 0
13.3502, 7.11246, 4.57224, 0
13.3846, 7.13078, 2.05782, 0
13.6924, 12.892, 1.10194, 0
13.3436, 7.10893, 4.83306, 0
12.823, 14.2791, 1.03526, 0
13.395, 6.95536, 4.81216, 0
13.361, 7.11824, 3.80008, 0
13.6739, 6.87789, 1.09472, 0
13.6669, 6.87438, 1.58339, 0
13.6621, 6.87201, 1.82851, 0
13.6257, 6.85368, 4.61022, 0
13.6257, 6.85369, 4.34736, 0
13.3031, 6.98078, 4.14397, 0
13.3919, 13.1914, 1.94558, 0
13.1875, 8.34803, 1.25378, 0
13.6594, 6.87062, 2.0747, 0
13.1495, 7.96688, 2.2976, 0
13.6469, 12.8398, 2.94207, 0
13.4908, 13.1854, 1.13787, 0
13.3263, 7.00079, 2.3992, 0
13.0598, 14.038, 4.03977, 0
13.5514, 6.71097, 2.1719, 0
13.5624, 6.69127, 2.29012, 0
12.8483, 13.9589, 1.11755, 0
13.5513, 6.6742, 4.04372, 0
13.6732, 12.8509, 2.03657, 0
13.0421, 14.0544, 2.82106, 0
13.6898, 12.8575, 1.4368, 0
13.639, 6.67369, 4.58655, 0
13.2722, 7.63109, 3.75198, 0
13.4951, 6.66803, 2.72191, 0
13.318, 6.8109, 3.87883, 0
13.6529, 6.67286, 1.23831, 0
13.4575, 7.41565, 4.39289, 0
13.6687, 6.67463, 1.4834, 0
13.4902, 7.46716, 4.65632, 0
12.8443, 14.2862, 4.69014, 0
13.2644, 13.4224, 2.69201, 0
13.6863, 13.1876, 4.26173, 0
12.8758, 14.3537, 4.39297, 0
13.2716, 13.5128, 1.23503, 0
12.8369, 14.2839, 3.76189, 0
12.8336, 14.248, 4.06342, 0
13.7426, 12.9213, 2.89228, 0
13.3614, 8.07406, 2.45744, 0
12.8491, 14.3297, 3.46236, 0
12.8284, 14.314, 1.63965, 0
12.8393, 14.3579, 1.3399, 0
13.3254, 7.62202, 4.2588, 0
12.826, 14.2796, 1.93886, 0
13.0967, 14.0865, 1.31209, 0
13.2287, 13.4004, 4.18558, 0
13.276, 7.64916, 1.29108, 0
13.3652, 13.1651, 4.39391, 0
13.2425, 8.36524, 3.97912, 0
13.3882, 13.1876, 2.24691, 0
13.2382, 8.42128, 1.50193, 0
13.6212, 13.1966, 2.74034, 0
13.2064, 8.3667, 1.98894, 0
13.4502, 13.0764, 2.33429, 0
13.2187, 8.39174, 1.7456, 0
13.4362, 13.2269, 3.01037, 0
13.3727, 8.04051, 4.709, 0
13.7015, 7.16827, 1.41455, 0
13.4695, 8.05699, 4.46998, 0
13.675, 12.8664, 4.65655, 0
13.428, 8.05044, 4.20755, 0
13.7761, 12.8996, 4.36498, 0
13.4, 8.05158, 3.95074, 0
13.7366, 12.8841, 4.06438, 0
13.3773, 8.0557, 3.6971, 0
13.6565, 12.8443, 2.63939, 0
13.4692, 8.09598, 2.21625, 0
12.8829, 13.8933, 3.84227, 0
13.1821, 13.7023, 2.89798, 0
13.079, 13.6771, 2.29136, 0
13.072, 13.7007, 1.38743, 0
13.1156, 13.7055, 1.68705, 0
12.8476, 13.8757, 1.71665, 0
13.416, 13.413, 3.3828, 0
13.1204, 7.94986, 1.55999, 0
13.1108, 7.92465, 1.80357, 0
13.1055, 7.90201, 2.04679, 0
13.0954, 7.91524, 1.06956, 0
13.2605, 7.64358, 2.76171, 0
13.3392, 7.6489, 2.51796, 0
13.342, 7.64878, 1.77943, 0
13.3036, 7.64597, 1.53481, 0
13.2262, 13.4258, 4.86212, 0
13.4547, 13.5253, 1.87508, 0
13.4236, 13.4451, 2.17347, 0
13.7044, 13.1908, 4.88086, 0
13.257, 13.4467, 2.13821, 0
13.4264, 13.4202, 1.26371, 0
13.6642, 13.2091, 1.83124, 0
13.7388, 13.233, 2.13089, 0
13.4677, 7.42929, 3.64852, 0
13.4885, 7.46165, 3.4062, 0
13.5277, 7.51492, 1.68891, 0
13.4742, 7.44463, 2.17605, 0
13.4713, 7.44729, 1.44284, 0
13.6429, 7.15452, 2.64115, 0
13.6809, 7.15662, 2.15081, 0
13.2518, 13.5003, 4.56884, 0
13.2417, 13.4993, 3.95799, 0
13.2543, 13.4856, 2.44286, 0
13.2742, 13.5109, 1.83952, 0
13.4074, 7.51883, 2.26136, 0
-11.6737, 19.0539, 5.71077, 0
-11.5458, 19.0389, 5.87393, 0
-11.6119, 19.079, 5.51147, 0
-11.6724, 19.1098, 5.14707, 0
-11.1699, 19.3379, 5.19918, 0
-11.1479, 19.3741, 5.93035, 0
-11.7939, 18.9209, 5.36312, 0
-12.013, 18.7933, 5.02522, 0
-11.6049, 19.0055, 5.21556, 0
-11.6026, 19.0016, 5.58854, 0
-11.1203, 19.4027, 5.15058, 0
-11.1529, 19.2833, 5.77237, 0
-11.347, 19.156, 5.58868, 0
-10.6268, 19.6997, 5.37471, 0
-11.3914, 19.1076, 5.38752, 0
-11.3535, 19.1671, 5.21764, 0
-11.1553, 19.292, 5.3988, 0
-11.5953, 18.9896, 5.96183, 0
-10.6285, 19.6985, 5.74311, 0
-11.3441, 19.1511, 5.96423, 0
-10.7743, 19.5203, 5.51605, 0
-11.1427, 19.4262, 5.532, 0
-10.7712, 19.4981, 5.88619, 0
-10.9012, 19.4202, 5.69334, 0
-11.0071, 19.4959, 5.82502, 0
-10.6746, 19.6759, 5.46723, 0
-12.12, 18.7654, 5.75286, 0
-10.777, 19.5418, 5.14794, 0
-12.151, 18.7861, 5.39398, 0
-11.7183, 19.0976, 3.6811, 0
-11.707, 19.0957, 3.21051, 0
-11.6182, 16.368, 2.97197, 0
-11.6902, 19.0455, 3.24109, 0
-11.7617, 19.0903, 4.4137, 0
-11.3877, 19.3523, 2.34458, 0
-11.3298, 19.3682, 4.38613, 0
-11.2884, 19.3655, 2.92529, 0
-11.291, 19.3834, 1.83009, 0
-11.6129, 19.1503, 3.98851, 0
-11.5623, 19.1381, 2.53205, 0
-11.6584, 19.2009, 2.16102, 0
-11.5155, 16.513, 3.09801, 0
-11.596, 19.0654, 4.77864, 0
-11.5834, 19.0562, 4.05139, 0
-11.6336, 19.0805, 2.96277, 0
-11.7242, 19.1577, 2.59554, 0
-11.6873, 19.11, 1.87003, 0
-11.6688, 19.092, 1.14388, 0
-11.1681, 19.4429, 3.65395, 0
-11.1488, 19.4381, 4.37127, 0
-11.4, 16.5013, 3.25864, 0
-11.1773, 19.3292, 2.06075, 0
-10.7819, 19.5672, 4.78278, 0
-10.8122, 19.5817, 2.24642, 0
-10.8064, 19.5236, 3.317, 0
-10.6246, 19.7043, 4.64526, 0
-10.816, 19.6043, 1.89115, 0
-10.8083, 19.5429, 2.95929, 0
-10.6194, 19.7074, 3.56446, 0
-10.6203, 19.7048, 3.92284, 0
-5.19731, 19.2511, 3.54659, 0
-10.6856, 19.6851, 3.28833, 0
-10.8063, 19.5074, 3.67637, 0
-11.1726, 19.3487, 3.20489, 0
-11.1699, 19.3396, 3.56613, 0
-11.3596, 19.1773, 4.11278, 0
-11.739, 19.0094, 1.12596, 0
-11.1617, 19.332, 1.70566, 0
-4.98323, 19.3661, 3.10436, 0
-10.9324, 19.4616, 2.42874, 0
-10.6115, 19.7139, 1.78847, 0
-11.18, 19.3703, 2.4867, 0
-10.7999, 19.6328, 4.06022, 0
-11.1673, 19.3306, 3.92894, 0
-5.09903, 19.2984, 3.4185, 0
-10.7874, 19.5937, 4.41952, 0
-11.1461, 19.3347, 1.35141, 0
-11.1618, 19.3167, 4.29238, 0
-5.45522, 19.2164, 3.03401, 0
-11.1961, 19.332, 2.41746, 0
-11.1594, 19.3082, 4.65886, 0
-11.6336, 19.0524, 1.5966, 0
-11.6223, 19.0339, 3.02612, 0
-11.3814, 19.2142, 1.59722, 0
-11.594, 15.4516, 4.00503, 0
-11.1887, 19.3941, 1.77232, 0
-11.1948, 19.4092, 1.41618, 0
-11.3838, 19.2182, 1.24171, 0
-11.3557, 19.1706, 4.84704, 0
-5.59903, 19.1893, 2.89163, 0
-11.7802, 18.9649, 1.78628, 0
-11.3704, 19.1956, 3.02731, 0
-11.8577, 18.9302, 4.29047, 0
-11.1011, 19.3848, 4.77424, 0
-5.28269, 19.3763, 3.02784, 0
-11.4987, 19.1843, 1.76842, 0
-11.5001, 15.8741, 3.3786, 0
-10.8305, 19.6623, 1.18185, 0
-11.6112, 19.0157, 4.11115, 0
-11.9082, 19.0667, 1.45593, 0
-10.6089, 19.7175, 1.08258, 0
-11.3577, 19.174, 4.47881, 0
-11.7674, 19.0243, 1.48744, 0
-11.2007, 19.4236, 1.06022, 0
-11.184, 19.3633, 3.75473, 0
-5.45401, 19.2122, 3.35834, 0
-11.2158, 19.336, 2.77576, 0
-11.0579, 19.3859, 2.95123, 0
-11.628, 19.0432, 2.30936, 0
-11.5072, 19.1861, 2.84553, 0
-11.1842, 19.3819, 2.12914, 0
-11.1801, 19.3936, 3.39432, 0
-11.6301, 19.0466, 1.95245, 0
-11.376, 19.205, 2.31027, 0
-11.1772, 19.3611, 2.84549, 0
-11.378, 19.2084, 1.95322, 0
-5.29225, 19.3674, 3.35213, 0
-10.9076, 19.4422, 3.86212, 0
-10.6172, 19.7076, 3.20711, 0
-11.8677, 18.9188, 3.93229, 0
-11.6071, 19.0091, 4.84511, 0
-10.7116, 19.6723, 1.86247, 0
-12.0794, 18.7585, 4.65604, 0
-11.6092, 19.0124, 4.47703, 0
-10.7136, 19.6996, 1.5095, 0
-10.6926, 19.7221, 2.93458, 0
-5.08425, 19.3031, 3.09585, 0
-11.5982, 16.2509, 3.5499, 0
-10.6224, 19.7046, 4.28315, 0
-10.6141, 19.7104, 2.49613, 0
-10.8102, 19.5622, 2.60248, 0
-12.2245, 18.8494, 2.88788, 0
-10.8214, 19.63, 1.53635, 0
-12.1692, 18.8216, 1.82018, 0
-12.2315, 18.8647, 1.11474, 0
-11.8796, 19.0476, 3.58625, 0
-11.8782, 18.9909, 2.87002, 0
-11.8759, 19.0144, 3.22668, 0
-11.9082, 19.0395, 1.10236, 0
-12.1443, 18.8094, 2.17217, 0
-6.01509, 19.1851, 3.42771, 0
-10.8729, 19.59, 1.08032, 0
-12.1919, 18.885, 1.47903, 0
-11.8139, 18.9844, 3.92986, 0
-6.03524, 19.1904, 3.11007, 0
-11.868, 18.981, 1.80404, 0
-10.6131, 19.7127, 2.14202, 0
-11.8534, 19.08, 2.51015, 0
-12.1203, 18.7986, 2.52403, 0
-5.98599, 19.1696, 3.49321, 0
-11.6242, 19.037, 2.66693, 0
-5.67719, 19.1735, 3.77272, 0
-11.5232, 19.0999, 3.18713, 0
-11.6831, 18.975, 3.63406, 0
-11.4441, 19.1144, 3.94907, 0
-11.4446, 19.1477, 3.58821, 0
-5.54064, 19.2063, 3.53477, 0
-11.5902, 6.90077, 5.31754, 0
-11.2539, 7.12586, 5.50357, 0
-11.5776, 6.7649, 5.90711, 0
-11.5624, 6.68805, 5.12607, 0
-11.5681, 6.76436, 5.22472, 0
-11.623, 6.77502, 5.69014, 0
-11.3411, 6.95322, 5.10598, 0
-11.3321, 6.95622, 5.79976, 0
-11.3554, 6.76181, 5.53896, 0
-11.4871, 6.6816, 5.3321, 0
-11.5815, 6.68819, 5.82841, 0
-10.8743, 13.7841, 5.51715, 0
-10.8751, 13.7807, 5.81326, 0
-11.4752, 13.0451, 5.68498, 0
-11.4785, 13.0469, 5.99293, 0
-11.477, 13.049, 5.38267, 0
-11.3332, 7.17212, 5.80264, 0
-11.2508, 7.25384, 5.08971, 0
-11.2383, 7.24501, 5.57544, 0
-11.1871, 13.2459, 5.07166, 0
-11.1818, 13.2356, 5.67098, 0
-11.6407, 12.94, 5.26106, 0
-11.3151, 13.0987, 5.83742, 0
-11.1822, 13.2381, 5.36888, 0
-11.6455, 12.9454, 4.96312, 0
-11.1757, 13.2263, 5.97313, 0
-11.2423, 7.24795, 5.33008, 0
-10.884, 13.6231, 5.15488, 0
-11.3209, 13.1053, 5.53594, 0
-11.6346, 12.9332, 5.86678, 0
-11.4729, 13.0463, 5.0806, 0
-11.3258, 13.1111, 5.23689, 0
-11.6406, 12.9399, 5.56386, 0
-11.1803, 7.47005, 5.40489, 0
-10.935, 13.5142, 5.43923, 0
-10.9271, 13.4962, 5.73589, 0
-11.1892, 7.27565, 5.12298, 0
-11.1271, 7.57782, 5.12312, 0
-11.0185, 13.3972, 5.25191, 0
-11.0253, 13.4778, 5.57158, 0
-11.1094, 7.7572, 5.05152, 0
-11.3271, 7.36998, 5.36106, 0
-11.3161, 7.37032, 5.12191, 0
-11.7743, 12.6896, 5.95278, 0
-11.8264, 12.7085, 5.09413, 0
-11.8073, 12.7002, 5.37792, 0
-11.1004, 7.47105, 5.55845, 0
-11.1367, 13.3936, 5.13722, 0
-11.7887, 12.6927, 5.66356, 0
-11.3293, 7.46799, 5.75891, 0
-11.1057, 7.74638, 5.51792, 0
13.6801, 0.776668, 4.13978, 0
13.673, 0.775419, 2.68512, 0
13.6744, 0.773909, 4.54259, 0
13.6686, 0.752908, 2.30651, 0
13.6112, 4.43637, 2.82994, 0
13.5709, -1.68511, 2.22757, 0
13.4749, 1.13454, 3.09429, 0
13.6664, 0.731102, 2.09709, 0
13.5909, 3.60235, 3.09665, 0
13.645, 3.68962, 2.81883, 0
13.5884, 1.51873, 1.8746, 0
13.5665, 1.52473, 4.71262, 0
13.592, 1.51784, 1.44071, 0
13.5842, 1.51955, 2.30758, 0
13.572, 1.52206, 3.60973, 0
13.6657, 0.714252, 1.27217, 0
13.5654, 1.52394, 4.48961, 0
13.5937, 1.51738, 1.22316, 0
13.5861, 1.51912, 2.09115, 0
13.6472, 1.50893, 4.11592, 0
13.6436, 0.361452, 3.59569, 0
13.6299, 0.400218, 1.62605, 0
13.491, 0.576299, 3.1395, 0
13.6071, -1.6643, 2.7956, 0
13.7346, -4.88613, 1.68195, 0
13.8093, 0.738362, 2.34924, 0
13.7908, 0.762563, 1.25528, 0
13.6601, 0.917055, 2.12617, 0
13.6754, 0.933439, 1.47691, 0
13.3332, 0.721859, 4.06275, 0
13.5005, 0.741769, 1.56041, 0
13.4936, 0.74266, 1.77746, 0
13.5059, 0.740798, 1.34378, 0
13.4826, 0.744616, 2.21418, 0
13.3319, 0.927586, 4.21186, 0
13.321, 0.929653, 4.67932, 0
13.7224, 0.744412, 3.89094, 0
13.3275, 0.84487, 1.27836, 0
13.4065, 1.12638, 4.06657, 0
13.4801, 1.10334, 1.55845, 0
13.3519, 0.920794, 2.85364, 0
13.5238, -4.91654, 2.18558, 0
13.5314, -4.91933, 1.72148, 0
13.4883, -4.90366, 4.58785, 0
13.2888, 0.42421, 4.84993, 0
13.4849, -4.90241, 4.83891, 0
13.5228, -4.91618, 2.41958, 0
13.5186, -4.91466, 2.65416, 0
13.4427, 0.812261, 3.60852, 0
13.6685, 0.748232, 4.47009, 0
13.3209, 0.849557, 1.70843, 0
13.3954, 1.12544, 4.77227, 0
13.4405, 1.12923, 2.0486, 0
13.4426, 1.12941, 1.83045, 0
13.4182, 1.12736, 3.38001, 0
13.4351, 1.12878, 2.26719, 0
13.5953, -2.16088, 2.76518, 0
13.3382, 0.923887, 3.52377, 0
13.4109, 1.12675, 3.83596, 0
13.7214, 0.749544, 3.66675, 0
13.3595, 0.698035, 3.57197, 0
13.4788, 0.814442, 1.18139, 0
13.7052, 1.09341, 4.12615, 0
13.3465, 0.923107, 3.29974, 0
13.4148, 1.12707, 3.60714, 0
13.3617, 0.695169, 3.79884, 0
13.4718, 0.814021, 1.61369, 0
13.6653, 0.922524, 1.90967, 0
13.6798, 1.08019, 4.5753, 0
13.452, 1.1302, 1.18104, 0
13.3345, 0.924998, 3.75068, 0
13.5386, -4.92191, 1.26032, 0
13.3671, 0.686365, 4.4899, 0
13.4645, 0.813579, 2.04878, 0
13.6203, -2.03796, 3.52436, 0
13.3268, 0.928635, 4.44455, 0
13.4347, 0.81178, 4.06824, 0
13.424, 0.811135, 4.53543, 0
13.439, 0.812038, 3.83748, 0
13.7209, 1.10016, 3.90374, 0
13.7376, 1.10696, 3.68233, 0
13.4989, -4.90749, 4.09395, 0
13.3068, 0.390557, 4.39374, 0
13.5006, -4.90812, 3.84912, 0
13.4577, 1.07571, 2.57943, 0
13.4242, 0.811145, 4.77444, 0
13.4695, 0.813885, 1.83102, 0
13.542, -4.92316, 1.03056, 0
13.3656, 0.68934, 4.25771, 0
13.4601, 0.813317, 2.48818, 0
13.535, -4.92064, 1.49058, 0
13.3696, 0.68341, 4.72449, 0
13.3072, 0.859013, 2.57807, 0
13.3088, 0.856513, 2.35886, 0
13.3141, 0.854263, 2.14135, 0
13.7108, -4.87471, 4.75282, 0
13.3516, 0.415459, 3.28184, 0
13.3544, 0.919641, 2.63274, 0
13.2562, 0.893441, 3.14166, 0
13.6021, -2.33537, 3.53416, 0
13.3247, 0.723392, 4.52471, 0
13.3204, 0.724171, 4.75881, 0
13.5863, -2.28253, 2.98355, 0
13.3423, 0.721376, 3.83583, 0
13.6007, -2.27593, 2.7694, 0
13.3465, 0.720624, 3.60928, 0
13.7254, 1.08952, 2.57267, 0
13.4089, 0.69745, 2.59943, 0
13.5699, 1.52248, 3.82837, 0
13.6977, -4.87835, 4.26556, 0
13.3793, 0.385847, 2.62531, 0
13.2781, 0.856994, 1.36902, 0
13.3726, 1.05955, 4.63848, 0
13.8234, 0.733864, 2.57042, 0
13.356, 0.712468, 2.45971, 0
13.393, -4.91741, 3.64762, 0
13.3239, 0.400577, 3.9451, 0
13.6224, -2.69371, 2.66667, 0
13.3339, 0.405579, 3.72308, 0
13.3617, 0.420401, 3.06284, 0
13.4052, 0.400259, 1.975, 0
13.4138, 0.405047, 1.75884, 0
13.6836, -4.88146, 3.78496, 0
13.388, 0.390662, 2.40813, 0
13.3718, 0.249964, 4.86765, 0
13.4429, 0.225773, 3.96567, 0
13.4571, 0.216361, 4.42607, 0
13.5164, 0.241697, 1.10678, 0
13.5913, 4.2303, 2.72805, 0
13.7772, 1.11489, 1.70138, 0
13.8079, 1.12791, 1.26477, 0
13.7373, 1.0958, 2.35473, 0
13.6308, 0.933808, 3.21545, 0
13.7393, 19.059, 5.93607, 0
13.7303, 19.0711, 5.1138, 0
13.1388, 19.4002, 5.31931, 0
13.1451, 19.4704, 4.9522, 0
13.4433, 19.2934, 5.63876, 0
13.1479, 19.5322, 5.69521, 0
13.7178, 19.2485, 5.43075, 0
13.6817, 19.2369, 5.81621, 0
13.4126, 19.434, 5.0937, 0
13.415, 19.5149, 5.88437, 0
12.9659, 19.6987, 5.97945, 0
12.9118, 19.6912, 5.58949, 0
12.8657, 19.6952, 5.20497, 0
13.881, 18.7464, 5.83547, 0
13.7137, 18.9025, 5.53771, 0
13.4747, 19.1134, 5.9351, 0
13.3443, 19.2329, 5.67123, 0
13.3601, 19.1751, 5.47366, 0
13.364, 19.1806, 5.08538, 0
13.9597, 18.6936, 5.06527, 0
13.9646, 18.6889, 5.45005, 0
13.6316, 19.0158, 5.0897, 0
13.4984, 18.9277, 5.76132, 0
13.6252, 19.0069, 5.87023, 0
13.7228, 18.9075, 5.14969, 0
12.8026, 20.0317, 5.83936, 0
13.6285, 19.0115, 5.47866, 0
12.5363, 20.186, 5.86163, 0
12.53, 20.2303, 5.48271, 0
12.6675, 19.8771, 5.62782, 0
13.705, 18.8982, 5.92857, 0
13.6504, 18.9569, 5.83302, 0
-11.5386, 13.0105, 4.00881, 0
-11.6513, 13.0735, 3.14623, 0
-11.6213, 13.0709, 2.28358, 0
-11.527, 13.039, 1.13977, 0
-11.6176, 13.0579, 1.70649, 0
-11.5721, 6.93323, 3.74, 0
-11.5746, 6.89805, 3.06292, 0
-11.5794, 6.90107, 2.61761, 0
-11.2777, 13.3502, 2.0854, 0
-11.4397, 13.0332, 3.60229, 0
-11.5866, 6.8415, 1.13236, 0
-11.5772, 6.83899, 1.56376, 0
-11.1833, 13.3467, 3.77559, 0
-11.4226, 13.1278, 3.53912, 0
-11.2422, 7.16549, 2.52817, 0
-11.6954, 13.1061, 1.14826, 0
-11.9739, 12.8196, 1.17782, 0
-11.8743, 12.7741, 1.72613, 0
-11.8204, 12.7396, 4.21059, 0
-11.5756, 6.7014, 4.24044, 0
-11.5521, 6.6993, 4.45528, 0
-11.6012, 6.70475, 4.02683, 0
-11.5905, 6.69255, 4.90846, 0
-11.6453, 13.0425, 1.74544, 0
-11.8546, 12.7532, 1.47618, 0
-11.8002, 12.717, 3.95624, 0
-11.8856, 12.7491, 2.57744, 0
-11.298, 13.3639, 1.52208, 0
-11.5813, 6.70786, 2.70494, 0
-11.6067, 6.71561, 2.06868, 0
-11.3082, 13.3707, 1.23905, 0
-11.5901, 6.71061, 2.4925, 0
-11.6479, 6.73015, 1.22278, 0
-11.5254, 6.6918, 4.21437, 0
-10.8691, 13.799, 4.06933, 0
-10.8719, 13.7897, 4.93171, 0
-10.8671, 13.8257, 2.10713, 0
-10.8703, 13.792, 4.64214, 0
-10.8653, 13.8026, 3.50226, 0
-11.6064, 12.9798, 3.13655, 0
-11.867, 12.741, 2.852, 0
-11.1288, 7.80221, 3.26228, 0
-11.2948, 7.47316, 4.12998, 0
-11.2866, 7.47546, 3.68406, 0
-11.3222, 7.48412, 1.53291, 0
-11.3433, 7.48337, 2.38754, 0
-11.6547, 6.86575, 3.21357, 0
-10.8923, 13.6482, 4.86963, 0
-11.5705, 6.83749, 1.99337, 0
-10.8924, 13.613, 3.71658, 0
-11.554, 6.82968, 2.42205, 0
-10.8893, 13.5949, 3.99678, 0
-11.6863, 6.792, 1.73841, 0
-10.8971, 13.6328, 3.43782, 0
-10.9074, 13.6227, 2.04411, 0
-10.9059, 13.6071, 2.31917, 0
-11.7025, 12.937, 3.52083, 0
-11.6257, 13.0352, 3.96763, 0
-11.5397, 6.6954, 3.77767, 0
-11.139, 13.4297, 2.58733, 0
-11.1141, 13.3938, 4.55455, 0
-11.5421, 13.0335, 2.57595, 0
-11.1431, 7.70561, 4.22509, 0
-11.1101, 7.65944, 4.89772, 0
-11.1654, 7.72887, 4.00714, 0
-11.1306, 7.68919, 4.44728, 0
-11.1239, 7.66107, 3.54237, 0
-11.2057, 7.76218, 2.25441, 0
-11.1582, 7.69622, 1.60267, 0
-11.1507, 7.68389, 1.81466, 0
-11.1759, 7.72284, 1.17889, 0
-11.1433, 7.67161, 2.02681, 0
-11.1476, 7.49411, 2.65254, 0
-11.2998, 7.37446, 4.65387, 0
-11.2912, 7.37614, 4.42335, 0
-11.3226, 7.39461, 2.87718, 0
-11.339, 13.1263, 3.77332, 0
-11.3361, 13.123, 4.06156, 0
-11.6851, 12.9894, 1.24961, 0
-10.8699, 13.8376, 1.55383, 0
-11.6534, 12.9542, 4.37379, 0
-11.6497, 12.95, 4.66739, 0
-11.3294, 13.1152, 4.64384, 0
-11.6814, 12.9852, 1.5281, 0
-10.9178, 13.6769, 1.22032, 0
-11.6527, 12.9534, 4.08079, 0
-11.3523, 7.11611, 3.36316, 0
-11.8442, 12.7427, 4.77965, 0
-11.1193, 7.53145, 3.93198, 0
-11.3484, 7.11364, 3.58881, 0
-10.9952, 13.5982, 1.71569, 0
-11.3558, 7.11832, 3.13903, 0
-11.8954, 12.7457, 4.25391, 0
-11.022, 13.6465, 1.16232, 0
-11.3696, 7.12692, 2.03809, 0
-11.1343, 7.54859, 3.25658, 0
-11.3537, 13.1433, 2.35669, 0
-11.6005, 6.84532, 4.07137, 0
-11.6767, 12.98, 2.08751, 0
-11.374, 6.91896, 4.25574, 0
-11.2442, 13.3355, 2.54556, 0
-11.9092, 12.7624, 2.30351, 0
-11.2198, 7.28583, 3.74978, 0
-11.6722, 12.975, 2.36814, 0
-11.3673, 6.91492, 4.48714, 0
-11.2476, 13.3324, 2.8277, 0
-11.356, 13.146, 2.07703, 0
-11.6018, 6.84609, 3.83965, 0
-11.3806, 6.92299, 3.79683, 0
-11.22, 13.3046, 2.20301, 0
-11.5197, 6.69084, 4.43518, 0
-10.9604, 13.5097, 3.39328, 0
-11.8612, 12.7527, 3.93746, 0
-11.3989, 6.93416, 2.24363, 0
-11.8693, 12.7299, 4.53207, 0
-11.0071, 13.6205, 1.43891, 0
-11.5889, 6.83847, 4.77707, 0
-11.2573, 13.3368, 3.11296, 0
-11.3377, 7.10698, 4.27747, 0
-10.9802, 13.5646, 2.27129, 0
-11.4142, 6.94343, 1.16886, 0
-11.2176, 7.27081, 4.19911, 0
-11.4066, 6.93879, 1.81163, 0
-11.1348, 7.32192, 4.83108, 0
-11.3343, 7.10484, 4.74901, 0
-11.5918, 6.84018, 4.53912, 0
-11.4794, 13.0684, 2.76377, 0
-11.3433, 7.11046, 4.0466, 0
-10.9881, 13.582, 1.99337, 0
-11.3363, 7.10606, 4.51211, 0
-11.4116, 6.94185, 1.38247, 0
-11.1916, 7.29845, 4.42738, 0
-11.3671, 7.12538, 2.25597, 0
-11.6698, 12.9723, 2.65023, 0
-11.3648, 6.9134, 4.72251, 0
-11.3647, 13.1561, 1.2434, 0
-10.9768, 13.5982, 4.27767, 0
-11.3895, 6.92842, 2.90005, 0
-11.2364, 13.3316, 1.08997, 0
-11.5043, 6.68666, 4.88038, 0
-10.9564, 13.4971, 3.67689, 0
-11.3442, 13.1323, 3.20206, 0
-11.396, 6.93237, 2.46127, 0
-11.36, 13.1506, 1.79861, 0
-11.0275, 13.4432, 4.67572, 0
-11.3812, 6.92337, 3.56951, 0
-11.2248, 13.3122, 1.92392, 0
-11.3622, 13.1532, 1.52066, 0
-11.3855, 6.92599, 3.34517, 0
-11.2282, 13.3181, 1.64532, 0
-11.5991, 9.99756, 3.66203, 0
-11.9111, 12.7833, 4.5111, 0
-11.3929, 6.93046, 2.68005, 0
-11.9357, 12.7788, 2.02957, 0
-11.2182, 7.2982, 3.30604, 0
-11.1467, 7.33881, 3.90628, 0
-11.3809, 7.13402, 1.17515, 0
-11.1791, 7.62326, 4.19412, 0
-11.372, 7.12846, 1.82117, 0
-11.1457, 7.59551, 4.65163, 0
-11.3785, 7.13252, 1.38992, 0
-11.1175, 7.36501, 4.59837, 0
-11.1228, 7.53613, 3.70467, 0
-11.0395, 13.4191, 3.80619, 0
-11.4737, 13.049, 4.78344, 0
-11.2073, 13.2818, 3.33106, 0
-11.1951, 13.2595, 4.48376, 0
-11.2045, 13.2766, 3.61663, 0
-11.345, 7.26887, 2.81258, 0
-11.1601, 7.35636, 3.01267, 0
-11.1693, 7.586, 1.94232, 0
-11.1805, 7.59808, 1.51093, 0
-11.1955, 7.61276, 1.08178, 0
-11.1576, 7.57357, 2.37641, 0
-11.5313, 10.4845, 2.9357, 0
-11.1635, 7.57985, 2.15898, 0
-11.6016, 6.72423, 1.46933, 0
-11.6153, 6.7183, 1.85716, 0
-11.1836, 13.2938, 4.83305, 0
-11.1725, 13.2955, 4.24547, 0
-11.2491, 7.31831, 1.58033, 0
-11.2474, 7.31084, 1.79296, 0
-11.2478, 7.30471, 2.00644, 0
-11.2228, 7.32103, 2.65254, 0
-11.2223, 7.30752, 3.08762, 0
-11.2983, 13.237, 4.6653, 0
-11.3465, 7.4129, 1.16687, 0
-11.3709, 7.40859, 1.80623, 0
-11.3806, 7.40815, 2.02093, 0
-11.5717, 10.4707, 3.68805, 0
-11.3164, 7.39749, 2.66007, 0
-11.3745, 7.3935, 3.99033, 0
1.0864, -16.9451, 5.89144, 0
1.39664, -16.9488, 5.57182, 0
1.25525, -17.2569, 5.61091, 0
0.641271, -17.005, 5.78046, 0
1.40021, -17.1207, 5.69386, 0
0.630168, -17.0281, 5.49471, 0
1.3938, -17.1961, 5.13862, 0
0.833413, -17.1288, 5.18356, 0
1.1774, -17.1028, 5.78148, 0
1.17745, -17.1035, 5.48033, 0
1.1779, -17.1101, 5.184, 0
1.37515, -17.1594, 5.42227, 0
0.833163, -17.1237, 5.7817, 0
0.833467, -17.13, 5.48233, 0
0.820793, -17.1647, 5.92558, 0
-11.6375, 0.771869, 4.28821, 0
-11.6244, 0.779059, 2.51107, 0
-11.5759, 0.771265, 3.95242, 0
-11.5724, -1.95786, 2.76017, 0
-11.584, 0.768174, 4.80441, 0
-11.5568, 0.774556, 3.1734, 0
-11.5094, 0.79664, 2.98119, 0
-11.5793, 0.775542, 2.58747, 0
-11.4538, 1.21561, 2.98402, 0
-11.5585, 0.849222, 3.72102, 0
-11.5559, 1.18561, 1.5981, 0
-11.556, 1.17599, 1.20614, 0
-11.5562, 0.835144, 2.92657, 0
-11.5757, 0.846043, 1.7679, 0
-11.5697, 0.850292, 1.18337, 0
-11.6205, 0.82378, 1.56704, 0
-11.6313, -4.83463, 3.85802, 0
-11.7086, -4.85344, 2.40499, 0
-11.5635, 1.07049, 2.07827, 0
-11.5929, 1.08368, 1.887, 0
-11.5403, 0.69966, 3.00134, 0
-11.5562, 0.727628, 1.1111, 0
-11.6339, 0.689355, 1.86456, 0
-11.4771, 0.706831, 3.92043, 0
-11.3815, 1.40072, 4.61145, 0
-11.304, 1.35835, 4.78351, 0
-11.3678, 1.03908, 2.5725, 0
-11.5345, -4.64132, 1.92444, 0
-11.5643, -4.64159, 1.72735, 0
-11.5093, -4.64297, 2.12083, 0
-11.5237, -4.64436, 1.33136, 0
-11.5015, -4.64732, 1.52875, 0
-11.329, 1.06343, 2.61513, 0
-11.5757, 3.55971, 3.54794, 0
-11.4327, 0.692155, 2.61812, 0
-11.3131, 0.718503, 3.66813, 0
-11.3336, 0.707891, 4.24604, 0
-11.3348, 0.704028, 4.44075, 0
-11.3743, 0.709868, 2.3809, 0
-11.3443, 0.730571, 1.29327, 0
-11.3496, 0.72349, 1.6536, 0
-11.3618, 0.716701, 2.01593, 0
-11.3465, 0.727012, 1.47329, 0
-11.388, -4.87757, 1.2579, 0
-11.6012, -4.64875, 2.32363, 0
-11.5405, 0.261674, 3.63181, 0
-11.5646, 0.240116, 4.80761, 0
-11.5443, 0.258165, 3.8231, 0
-11.5483, 0.247308, 4.40523, 0
-11.538, 1.88438, 4.53673, 0
-11.5155, 1.78536, 3.37316, 0
-11.4393, 1.74652, 4.93146, 0
-11.7055, -4.52594, 2.06426, 0
-11.679, -4.85013, 2.61348, 0
-11.3969, 1.61391, 3.77234, 0
-11.3967, 1.61284, 3.57261, 0
-11.3998, 1.61224, 3.37576, 0
-11.5037, 1.25101, 4.4101, 0
-11.4766, 1.25066, 4.82128, 0
-11.4373, 1.29219, 1.09131, 0
-11.6008, 4.27104, 2.83729, 0
-11.4278, 1.29348, 1.83186, 0
-11.5392, 0.66551, 4.76706, 0
-11.5291, -4.90625, 1.49809, 0
-11.6283, 0.22921, 3.4615, 0
-11.8746, -4.51861, 2.31691, 0
-11.4266, 1.29394, 2.01912, 0
-11.4307, 1.29321, 1.64574, 0
-11.4198, 1.29436, 2.39583, 0
-11.4211, 0.953352, 3.75486, 0
-11.5932, 0.684239, 2.62397, 0
-11.4983, -4.63694, 4.32109, 0
-11.9809, -4.1641, 1.51444, 0
-11.4115, 1.60886, 2.41396, 0
-11.7355, -4.7087, 4.16751, 0
-11.4616, 0.808368, 1.18922, 0
-11.4521, 1.15584, 3.28077, 0
-11.4417, 1.15479, 3.87825, 0
-11.5622, 0.787092, 2.19877, 0
-11.7713, -4.70272, 1.27976, 0
-11.415, 1.60836, 2.22572, 0
-11.5851, 0.246094, 2.52183, 0
-11.9191, -4.36592, 1.07334, 0
-11.4938, -4.89123, 3.99301, 0
-11.4045, 0.804342, 4.89583, 0
-11.9702, -4.161, 2.51515, 0
-11.4482, 1.15544, 3.47796, 0
-11.4188, 1.60694, 1.85167, 0
-11.7082, -4.66891, 3.5144, 0
-11.4099, 0.804722, 4.47422, 0
-11.5141, -4.63472, 4.94674, 0
-11.9744, -4.16221, 2.11292, 0
-11.4479, 0.807404, 2.1176, 0
-11.4392, 1.15454, 4.08169, 0
-11.5806, 0.754839, 4.60932, 0
-11.5457, 0.250939, 4.20901, 0
-11.7117, -4.46643, 2.87095, 0
-11.53, 1.78751, 1.14839, 0
-11.4239, 1.60572, 1.48122, 0
-11.7173, -4.67751, 3.30747, 0
-11.4131, 0.804949, 4.26744, 0
-11.4729, -4.63858, 4.52113, 0
-11.9771, -4.16302, 1.91295, 0
-11.4444, 0.807159, 2.30576, 0
-11.4219, 0.805569, 3.66026, 0
-11.9832, -4.16479, 1.31584, 0
-11.6411, 0.233586, 1.25248, 0
-11.5115, -4.89879, 2.7215, 0
-11.5909, -1.80787, 2.77473, 0
-11.5217, -4.90312, 1.90184, 0
-11.8198, -4.74796, 2.094, 0
-11.5187, -4.90184, 2.10506, 0
-11.5556, -2.15553, 3.52682, 0
-11.4495, 0.807517, 1.93011, 0
-11.4834, -4.88683, 4.43054, 0
-11.8653, -4.37251, 1.87144, 0
-11.4558, 0.807956, 1.55829, 0
-11.4867, -4.88824, 4.21002, 0
-11.9476, -4.36775, 1.47625, 0
-11.7802, -4.2654, 4.55912, 0
-11.4289, 0.806064, 3.26567, 0
-11.5099, -4.63842, 3.51186, 0
-11.5699, -1.68375, 3.21434, 0
-11.5149, -4.90024, 2.51505, 0
-11.7081, -4.6873, 4.5944, 0
-11.5376, 1.4234, 2.60485, 0
-11.6956, -4.67702, 4.81092, 0
-11.3936, 1.62304, 2.96007, 0
-11.7254, -4.68568, 3.1015, 0
-11.4951, 1.58228, 1.1475, 0
-11.7407, -4.67636, 1.87751, 0
-11.9493, -4.15501, 4.59825, 0
-11.7596, -4.69333, 1.47866, 0
-11.6846, -4.46102, 4.55382, 0
-11.2371, -4.92504, 4.27526, 0
-11.7396, -4.46521, 1.46507, 0
-11.8456, -4.36344, 3.93686, 0
-11.482, 1.76143, 2.24011, 0
-11.8524, -4.36122, 4.15401, 0
-11.4843, -4.88719, 4.65514, 0
-11.8711, -4.37024, 2.0738, 0
-11.6711, 0.227177, 1.61674, 0
-11.5102, -4.91291, 3.36669, 0
-11.5742, 0.259649, 1.79239, 0
-11.3602, -4.8759, 3.45128, 0
-11.5797, 0.252898, 2.15568, 0
-11.7868, -4.26774, 3.9243, 0
-11.8241, -4.49794, 4.81638, 0
-11.8419, -4.50528, 3.74891, 0
-11.496, 1.76984, 1.87485, 0
-11.8339, -4.502, 4.17013, 0
-11.4761, 1.75739, 2.42373, 0
-11.8425, -4.46257, 1.11527, 0
-11.5816, 0.70769, 1.48947, 0
-11.6018, 0.636281, 4.90696, 0
-11.9583, -4.15764, 3.74705, 0
-11.5003, 1.7797, 3.5614, 0
-11.4836, 1.77048, 3.94508, 0
-11.633, 1.41789, 1.32586, 0
-11.4726, 1.76541, 4.13824, 0
-11.5546, 1.41034, 3.55423, 0
-11.4852, 1.42663, 4.31825, 0
-11.5131, 1.7787, 1.51133, 0
-11.5883, 0.756254, 5.52204, 0
-11.56, 0.751481, 5.06972, 0
-11.552, 0.759496, 5.66066, 0
-11.6473, -4.81759, 5.5531, 0
-11.5602, 0.629888, 5.68481, 0
-11.5408, -4.63718, 5.59259, 0
-11.4875, -4.63607, 5.1502, 0
-11.7492, -4.7317, 5.29107, 0
-11.6868, -4.68969, 5.96076, 0
-11.3214, 1.37097, 5.17608, 0
-11.4396, 1.25064, 5.45741, 0
-11.4315, 1.25113, 5.67701, 0
-11.4509, 1.25052, 5.2423, 0
-11.2491, 1.04474, 5.83436, 0
-11.4739, -4.88278, 5.10724, 0
-11.4726, -4.88221, 5.33919, 0
-11.5253, 0.667111, 5.1951, 0
-11.2393, -4.9317, 5.11397, 0
-11.5697, 0.236403, 5.01137, 0
-11.428, 0.375094, 5.37143, 0
-11.4703, -4.88124, 5.57381, 0
-11.3984, 0.803912, 5.10924, 0
-11.395, 0.803673, 5.32679, 0
-11.3887, 0.803226, 5.77167, 0
-11.2174, -4.92874, 5.97622, 0
-11.3856, 0.803007, 5.99934, 0
-11.2436, -4.92731, 5.76448, 0
-11.6858, -4.66776, 5.03052, 0
-11.6485, -4.5178, 5.21872, 0
-11.414, 1.55483, 5.41134, 0
-11.8142, -4.49391, 5.25671, 0
-11.3854, 1.62224, 5.67398, 0
-11.3822, 1.62297, 5.89922, 0
-11.4319, 1.74186, 5.13513, 0
-11.4236, 1.73701, 5.34072, 0
-11.4202, 1.73288, 5.55091, 0
-11.7723, -4.26262, 5.2123, 0
-11.2831, 0.711232, 5.84002, 0
-11.768, -4.26109, 5.43417, 0
-11.2762, 0.719209, 5.42198, 0
-11.2467, 1.05514, 5.63736, 0
13.6559, 6.82589, 5.9371, 0
13.2063, 13.3665, 5.08465, 0
13.2115, 13.4264, 5.3982, 0
13.3237, 7.24593, 5.93317, 0
13.3422, 7.47483, 5.97803, 0
13.7403, 13.2092, 5.51173, 0
13.4466, 7.39966, 5.14713, 0
13.3704, 7.62455, 5.29178, 0
13.2897, 7.61587, 5.5363, 0
13.6522, 13.1583, 5.80994, 0
13.1627, 13.6614, 5.04875, 0
13.1564, 13.6586, 5.6776, 0
13.1079, 13.6513, 5.35679, 0
13.0844, 13.6302, 5.98233, 0
13.1725, 14.0538, 5.93501, 0
13.5829, 7.12274, 5.37597, 0
13.2997, 7.19862, 5.52947, 0
13.6673, 6.78796, 5.7846, 0
13.5513, 12.908, 5.33433, 0
13.5478, 12.9047, 5.65545, 0
13.3737, 7.05523, 4.97006, 0
13.6532, 7.12535, 5.13166, 0
13.3161, 7.61016, 5.80294, 0
13.3554, 13.1553, 5.02309, 0
13.3275, 7.43562, 4.95391, 0
13.7249, 12.8597, 5.14263, 0
12.9437, 13.9691, 5.73214, 0
13.3515, 13.1515, 5.34171, 0
13.7868, 12.7092, 5.14933, 0
13.3935, 8.03477, 4.96953, 0
13.6945, 12.8408, 5.7794, 0
12.8384, 14.2138, 5.30146, 0
13.6081, 7.11459, 5.63645, 0
12.8539, 14.2889, 5.6359, 0
13.71, 12.8505, 5.45994, 0
13.3418, 7.10797, 5.09814, 0
13.6088, 6.84519, 5.68177, 0
13.3512, 13.1513, 5.66462, 0
13.2681, 8.3664, 5.00937, 0
13.0804, 14.0218, 5.28247, 0
13.0529, 14.0249, 4.96698, 0
13.1127, 14.0235, 5.60225, 0
13.6057, 6.84359, 5.95737, 0
13.5332, 6.65611, 5.89571, 0
13.5613, 6.65604, 5.35996, 0
13.761, 12.698, 5.46282, 0
12.8381, 14.2465, 4.99433, 0
13.4504, 7.41201, 5.66389, 0
13.6458, 12.7116, 5.82556, 0
13.6112, 6.84637, 5.40897, 0
13.3119, 7.01455, 5.19093, 0
13.3208, 7.02667, 5.46194, 0
13.3434, 7.04608, 5.74173, 0
13.2819, 6.96406, 5.98226, 0
13.5257, 6.67998, 5.75266, 0
13.6564, 6.83459, 5.16117, 0
13.6904, 12.6355, 5.65966, 0
13.4573, 6.64492, 5.24653, 0
13.6188, 6.85022, 5.14115, 0
13.4019, 12.9665, 5.16981, 0
13.3463, 13.1464, 5.98852, 0
13.37, 8.02394, 5.74938, 0
13.4511, 8.03208, 5.50336, 0
13.6453, 7.11236, 5.90308, 0
13.705, 6.8182, 5.40377, 0
13.5898, 12.7141, 5.17303, 0
12.882, 13.9014, 5.08198, 0
13.3886, 0.668457, 5.93732, 0
13.5644, 1.52584, 5.16186, 0
13.2659, 0.841319, 5.09113, 0
13.6732, 0.756021, 5.35477, 0
13.4767, -4.89943, 5.60916, 0
13.375, 1.07184, 5.1845, 0
13.3862, 1.12467, 5.25465, 0
13.4167, 0.810694, 5.01331, 0
13.3746, 0.677416, 5.20069, 0
13.4808, -4.90091, 5.09228, 0
13.4155, 0.810617, 5.25721, 0
13.7056, 1.1019, 5.51588, 0
13.4697, -4.8969, 5.87012, 0
13.2777, 0.418964, 5.07923, 0
13.3826, 0.671419, 5.68834, 0
13.3042, 0.72638, 5.47416, 0
13.3731, 0.240105, 5.3384, 0
13.3095, 0.724587, 4.99292, 0
13.2973, 0.727053, 5.71723, 0
13.3726, 0.235088, 5.57702, 0
13.2584, 0.408419, 5.54459, 0
13.4103, 0.810304, 5.75309, 0
13.6651, 0.749731, 5.79595, 0
13.2492, 0.403087, 5.7807, 0
13.651, 0.767015, 5.07786, 0
13.376, 0.674314, 5.44221, 0
13.4757, -4.89908, 5.34803, 0
13.3653, 1.07563, 5.92877, 0
13.563, 1.52705, 5.61736, 0
13.6874, 1.09458, 5.74844, 0
13.3009, 1.04487, 5.47863, 0
13.2556, 0.849337, 5.82579, 0
13.5425, 1.07167, 5.65825, 0
7.49608, -17.3199, 2.83693, 0
7.01452, -17.3415, 2.82529, 0
6.53795, -17.2818, 3.35176, 0
13.3695, -17.3214, 4.8282, 0
6.58088, -17.2916, 3.64984, 0
6.90229, -17.3072, 3.02603, 0
13.3905, -17.2881, 4.49894, 0
13.394, -17.355, 4.15716, 0
6.42126, -17.2965, 3.19848, 0
6.43371, -17.3013, 2.89841, 0
12.9738, -17.5195, 4.87287, 0
12.9851, -17.4972, 4.51073, 0
13.0004, -17.5994, 4.17146, 0
12.9994, -17.5594, 3.80901, 0
6.57354, -17.3037, 3.06005, 0
13.0245, -17.5941, 2.74963, 0
13.0037, -17.5253, 2.39122, 0
7.12191, -17.327, 3.21303, 0
12.9277, -17.5634, 4.88964, 0
12.9557, -17.6119, 4.53986, 0
6.53387, -17.3223, 2.78361, 0
12.9557, -17.553, 2.40982, 0
12.9405, -17.5122, 3.10818, 0
7.12969, -17.3235, 3.51738, 0
12.924, -17.4594, 4.16069, 0
6.72914, -17.1064, 2.92829, 0
12.9479, -17.5323, 2.75886, 0
7.11538, -17.3334, 2.9101, 0
12.9352, -17.4949, 3.45831, 0
12.9656, -17.5764, 2.06097, 0
12.9762, -17.6008, 1.71191, 0
13.1105, -17.332, 4.87238, 0
12.9897, -17.6292, 1.36247, 0
13.2419, -17.3965, 4.53494, 0
13.1851, -17.361, 3.10687, 0
13.6341, -17.1191, 3.7147, 0
13.7777, -16.9882, 1.5952, 0
13.7586, -16.9693, 2.9994, 0
13.3751, -17.3189, 3.44357, 0
7.06797, -17.172, 3.46343, 0
13.3566, -17.2507, 3.58668, 0
13.3734, -17.2586, 2.17953, 0
13.7529, -16.9989, 2.36924, 0
13.2501, -17.3695, 1.29608, 0
13.5772, -17.0657, 4.30116, 0
13.6125, -17.0934, 2.53348, 0
13.3299, -17.3149, 1.96472, 0
13.3442, -17.2452, 4.65949, 0
13.344, -17.3299, 3.91391, 0
13.0122, -17.6698, 1.01223, 0
7.44727, -17.2588, 3.16087, 0
13.6612, -16.9638, 3.76121, 0
13.6542, -17.114, 1.27538, 0
13.6938, -16.9978, 1.66471, 0
13.5918, -17.077, 2.60958, 0
13.3318, -17.3295, 2.31668, 0
13.6201, -17.0996, 2.18379, 0
13.7263, -16.9882, 2.71775, 0
