X,Y,Z,I,
-11.0176, -17.6031, 3.49932, 0
-11.6544, -17.2529, 1.62049, 0
-11.0037, -17.5535, 4.16494, 0
-5.11024, -17.3178, 2.52247, 0
-11.4713, -16.8801, 4.59966, 0
-11.015, -17.5607, 1.177, 0
-5.47194, -17.2255, 3.27688, 0
-11.326, -17.3876, 2.15762, 0
-11.24, -17.278, 1.15744, 0
-5.05113, -17.0605, 2.52947, 0
-11.1243, -17.5216, 1.60764, 0
-5.22769, -17.0446, 2.55415, 0
-11.2428, -17.1448, 2.90115, 0
-11.4977, -16.9044, 2.28049, 0
-11.2449, -17.2289, 2.1453, 0
-11.5086, -17.1216, 2.47829, 0
-11.6507, -17.2444, 1.95064, 0
-11.243, -17.2876, 4.73807, 0
-11.4712, -16.8958, 1.29645, 0
19.2966, 31.269, 1.00177, 0
13.6512, -5.29406, 5.04598, 0
13.6046, -10.9975, 5.32782, 0
13.5284, -10.9538, 5.87038, 0
13.5333, -10.9578, 5.56643, 0
13.6547, -5.2984, 5.88055, 0
13.3257, -5.04677, 5.6382, 0
13.3235, -5.04753, 5.90052, 0
13.3344, -5.0469, 5.12467, 0
13.4954, -11.8158, 5.87057, 0
13.3338, -5.04824, 5.38147, 0
13.6787, -10.9218, 5.68947, 0
13.6538, -11.0045, 5.25257, 0
13.1689, -5.44806, 5.38457, 0
13.3319, -11.2329, 5.91717, 0
13.3979, -11.3018, 4.99601, 0
13.5969, -11.6042, 5.18901, 0
13.5411, -10.9641, 4.96615, 0
13.3427, -11.2365, 5.31, 0
13.6822, -10.9539, 4.95417, 0
13.493, -10.9245, 5.81957, 0
13.3932, -11.2979, 5.29627, 0
13.3807, -5.09452, 5.14428, 0
13.7103, -11.0294, 5.62219, 0
13.3867, -11.2924, 5.9063, 0
13.4864, -11.8754, 5.57636, 0
13.6557, -5.30765, 5.40794, 0
13.4669, -11.9919, 4.99444, 0
13.1556, -5.50569, 5.12425, 0
13.4768, -11.934, 5.28435, 0
13.3926, -11.2974, 5.60093, 0
13.1731, -5.38796, 5.64427, 0
13.6628, -5.28117, 5.6174, 0
13.1131, -11.4092, 5.62586, 0
13.345, -11.2356, 5.00945, 0
13.3353, -11.233, 5.61127, 0
13.1376, -11.4411, 5.0395, 0
13.1048, -11.3965, 5.92353, 0
13.4201, -5.37225, 5.52074, 0
13.5146, -5.02444, 5.49798, 0
13.3638, -5.32283, 4.99665, 0
13.3697, -5.25639, 5.84483, 0
13.5215, -10.9296, 5.52266, 0
13.5579, -10.941, 5.2309, 0
13.36, -5.22605, 5.8553, 0
13.3657, -5.23064, 5.61434, 0
1.15764, 19.0411, 5.3885, 0
1.47076, 18.9889, 5.41978, 0
1.49069, 19.0128, 5.10202, 0
0.913353, 19.0241, 5.50165, 0
1.18679, 19.1085, 5.78693, 0
0.915505, 19.03, 5.17728, 0
1.18717, 19.1146, 5.45871, 0
1.1875, 19.1199, 5.13304, 0
1.17568, 19.0451, 5.08539, 0
0.57804, 19.243, 5.97775, 0
0.911143, 19.0173, 5.82855, 0
1.5213, 19.0512, 5.77093, 0
0.802722, 19.1415, 5.13347, 0
0.858639, 19.1956, 5.27708, 0
0.802346, 19.1326, 5.78818, 0
0.284553, 19.282, 5.69485, 0
0.71224, 19.0866, 5.40771, 0
0.247691, 19.3785, 5.39588, 0
1.08629, 19.0301, 5.69275, 0
0.589846, 19.2851, 5.00666, 0
0.631959, 19.3638, 5.34538, 0
0.56096, 19.1216, 5.65973, 0
0.270708, 19.2718, 5.04251, 0
13.3178, -17.3025, 5.24348, 0
13.3102, -17.286, 5.61794, 0
13.7295, -17.0034, 5.3903, 0
13.3446, -17.262, 5.91534, 0
13.9496, -17.5948, 5.89228, 0
13.0452, -17.3934, 5.86172, 0
13.3573, -17.2523, 5.11023, 0
13.5691, -17.0486, 5.10334, 0
13.5975, -16.8859, 5.93575, 0
13.5595, -17.0365, 5.83428, 0
13.3494, -17.2535, 5.44476, 0
13.3118, -17.1028, 5.89756, 0
13.563, -17.0409, 5.46695, 0
13.349, -17.2417, 5.84272, 0
13.3013, -17.1993, 5.12135, 0
7.75949, -18.1393, 5.11909, 0
13.5642, -17.042, 5.90379, 0
13.3578, -17.3282, 5.87558, 0
13.3588, -17.2547, 5.54607, 0
13.6959, -17.0344, 5.18034, 0
13.6042, -16.9016, 5.19939, 0
13.3161, -17.0544, 5.52158, 0
13.6699, -17.0544, 5.60661, 0
13.6603, -17.0606, 5.97205, 0
13.4134, -17.3866, 5.69274, 0
13.6068, 9.88373, 2.91371, 0
13.5682, 10.0382, 3.44794, 0
13.6084, 9.49271, 3.51254, 0
13.7092, 6.91523, 3.2873, 0
13.6033, 10.3422, 3.09515, 0
13.596, 9.58922, 3.3174, 0
13.7263, 13.0646, 4.3079, 0
13.7573, 13.082, 2.48315, 0
13.7175, 6.8258, 4.82712, 0
13.6566, 6.80531, 3.91687, 0
13.5794, 9.86451, 2.74959, 0
13.5723, 10.1663, 3.5152, 0
13.5777, 10.2983, 3.44471, 0
13.6352, 9.98486, 3.54806, 0
13.5836, 10.076, 2.64986, 0
13.6672, 6.81432, 4.38013, 0
13.6511, 10.3823, 3.17256, 0
13.6937, 6.82355, 4.30089, 0
13.6324, 9.62604, 2.95657, 0
13.5867, 10.4162, 2.73862, 0
13.5914, 10.4063, 3.28307, 0
13.59, 10.4959, 3.07451, 0
13.58, 10.5013, 3.61696, 0
13.4507, 13.3632, 2.45514, 0
13.7073, 6.86616, 2.99716, 0
13.7037, 13.0577, 1.47582, 0
13.4109, 7.19909, 3.09469, 0
13.3472, 13.1854, 3.08012, 0
13.673, 12.9076, 4.48864, 0
13.3458, 13.1349, 3.85284, 0
13.3466, 13.1317, 4.15902, 0
13.6702, 12.9029, 4.79737, 0
13.3422, 13.1392, 3.24377, 0
13.3448, 13.1378, 3.54788, 0
13.6573, 12.9498, 3.47474, 0
13.3388, 13.1514, 2.03621, 0
13.412, 7.18812, 2.72842, 0
13.5999, 12.9896, 3.24718, 0
13.3244, 13.2378, 4.49482, 0
13.4799, 13.1686, 2.66213, 0
13.4439, 13.1587, 2.97138, 0
13.7038, 13.0502, 3.76094, 0
13.2497, 13.4406, 2.40662, 0
13.7089, 13.0582, 4.86374, 0
13.2485, 13.4263, 3.33471, 0
13.2244, 13.3841, 4.26535, 0
13.2192, 13.335, 4.88597, 0
13.6898, 6.74753, 1.79147, 0
13.6792, 6.74442, 2.28798, 0
13.6994, 6.725, 4.56429, 0
13.3036, 7.64295, 1.06961, 0
13.2978, 7.62798, 1.56987, 0
13.3518, 7.12184, 4.88093, 0
13.6051, 12.9578, 2.93012, 0
13.4326, 13.2297, 1.12916, 0
13.416, 13.2129, 2.33027, 0
12.1501, 6.12977, 3.58894, 0
13.6733, 6.85384, 3.63531, 0
12.2118, 6.4711, 4.8005, 0
13.2638, 7.57296, 1.81437, 0
13.3502, 7.11246, 4.57224, 0
12.0258, 5.49795, 1.3726, 0
13.3341, 7.00634, 4.45414, 0
13.3817, 7.12923, 2.30292, 0
13.1208, 13.5329, 3.71845, 0
12.1181, 5.96535, 3.01136, 0
13.5197, 6.72633, 2.73595, 0
13.1507, 13.8416, 4.29235, 0
13.3919, 13.1914, 1.94558, 0
13.3337, 7.84379, 2.79963, 0
13.3944, 13.1938, 1.64489, 0
13.5793, 6.83933, 1.43232, 0
13.3882, 13.1877, 2.24692, 0
12.01, 5.42264, 1.11088, 0
13.3439, 7.01865, 4.19793, 0
11.4879, 12.6259, 4.21288, 0
13.3846, 7.13078, 2.05782, 0
13.6752, 12.9473, 4.04698, 0
13.3357, 13.3338, 2.41912, 0
13.7534, 13.0991, 3.20389, 0
13.1237, 13.6145, 1.85951, 0
13.6346, 6.85816, 3.83104, 0
12.041, 5.5736, 1.6372, 0
13.5775, 12.9308, 4.78117, 0
11.2813, 12.9592, 4.52288, 0
11.1636, 12.3915, 2.68741, 0
13.361, 7.11824, 3.80008, 0
11.8384, 6.33046, 3.44752, 0
12.8658, 14.022, 4.64444, 0
13.1013, 13.8661, 2.42065, 0
12.8771, 14.0942, 4.34381, 0
12.176, 6.29422, 4.18263, 0
11.2086, 12.6116, 3.40268, 0
13.3951, 7.13639, 1.32786, 0
13.1899, 8.14, 4.39171, 0
13.356, 7.11555, 4.3134, 0
13.3652, 7.12047, 3.54685, 0
11.1423, 12.2848, 2.33824, 0
13.543, 6.69981, 4.72139, 0
13.6541, 6.86794, 2.57014, 0
13.7418, 13.0668, 2.94737, 0
13.1192, 13.5916, 1.54657, 0
13.6567, 6.86925, 2.32186, 0
13.1699, 8.11395, 3.60331, 0
13.5646, 12.9207, 4.07521, 0
13.5732, 12.996, 3.6523, 0
13.1648, 8.11958, 3.09213, 0
12.1269, 6.04174, 3.29564, 0
13.5696, 6.70974, 2.92668, 0
13.5961, 12.9507, 1.34296, 0
13.1068, 13.8268, 4.60559, 0
11.12, 12.1779, 1.99381, 0
13.369, 7.12249, 3.29524, 0
13.2556, 7.53119, 4.08984, 0
13.3653, 13.1651, 4.39392, 0
13.4103, 6.90455, 3.0298, 0
11.8879, 6.58617, 4.34189, 0
11.0967, 12.071, 1.65399, 0
13.3704, 13.1701, 3.77179, 0
13.5997, 12.9541, 1.04409, 0
11.2542, 12.8381, 4.14182, 0
13.5626, 12.9188, 4.38698, 0
13.1832, 8.14653, 3.86979, 0
13.5993, 9.60066, 2.8202, 0
13.3518, 6.82293, 3.15623, 0
13.3754, 13.1751, 3.46425, 0
13.6255, 6.85359, 4.61016, 0
13.5796, 12.9349, 2.84847, 0
13.2802, 7.58256, 3.84442, 0
13.3588, 13.1588, 4.70683, 0
13.2137, 8.17447, 3.36184, 0
13.4695, 12.9878, 3.82317, 0
13.4016, 13.2009, 1.04573, 0
11.8703, 6.49885, 4.03835, 0
13.6481, 6.86492, 2.81895, 0
13.6918, 12.9999, 3.41288, 0
13.3377, 13.1541, 1.73547, 0
13.6256, 6.85361, 4.34731, 0
13.1814, 8.1774, 1.84005, 0
13.5834, 12.9385, 2.54545, 0
13.6212, 12.9736, 1.72407, 0
13.1725, 8.17812, 1.33986, 0
12.1948, 6.38266, 4.4892, 0
13.3923, 7.13488, 1.57055, 0
11.4189, 12.2886, 3.11382, 0
11.5099, 12.74, 4.59149, 0
13.3343, 7.81955, 4.33842, 0
11.2322, 12.7252, 3.76943, 0
13.6729, 6.74265, 2.78633, 0
12.164, 6.21205, 3.88374, 0
11.4642, 12.5111, 3.84013, 0
13.3875, 7.13235, 1.81367, 0
13.3354, 7.80956, 4.86457, 0
13.6696, 6.87576, 1.3387, 0
13.3917, 7.81869, 4.6101, 0
13.6668, 6.87435, 1.58338, 0
13.7645, 12.7466, 2.70414, 0
13.4179, 7.8725, 2.04949, 0
13.6621, 6.87197, 1.8285, 0
11.3066, 13.0797, 4.91026, 0
13.4078, 7.8608, 2.55271, 0
13.7424, 12.7217, 4.87559, 0
13.3907, 7.82804, 4.08608, 0
13.673, 6.88727, 2.12148, 0
13.6335, 6.86628, 4.65684, 0
13.3683, 13.1608, 3.44678, 0
13.1503, 8.13194, 1.5841, 0
13.5801, 12.9269, 2.22683, 0
13.5926, 12.9473, 1.64234, 0
13.3238, 6.99375, 4.71199, 0
12.8578, 14.1093, 1.23668, 0
13.3478, 7.10069, 4.56631, 0
13.5738, 6.83643, 1.67525, 0
13.5833, 6.84147, 1.18979, 0
11.078, 11.971, 1.31966, 0
13.5606, 6.82939, 2.40909, 0
13.7074, 12.7844, 2.00684, 0
13.7306, 12.7924, 1.70785, 0
13.3436, 7.10894, 4.83306, 0
13.7913, 12.8217, 1.11123, 0
12.8469, 14.0739, 1.84723, 0
13.6872, 12.7792, 2.3066, 0
13.7556, 12.8021, 1.40918, 0
12.8705, 14.1333, 2.16243, 0
13.748, 12.7774, 2.92246, 0
13.3355, 13.1597, 1.13434, 0
13.7845, 12.7975, 2.62314, 0
12.8644, 14.076, 3.39467, 0
11.9036, 6.67339, 4.65006, 0
13.3682, 7.01184, 3.73355, 0
13.3773, 6.97924, 1.98862, 0
13.5761, 6.72971, 1.51426, 0
13.7173, 13.0574, 1.26686, 0
13.2608, 7.53397, 4.87578, 0
13.5547, 6.72887, 2.00097, 0
13.5885, 6.73094, 1.27177, 0
13.2954, 7.59222, 4.63027, 0
13.529, 6.70954, 4.5178, 0
13.3679, 13.1677, 4.08186, 0
13.3364, 7.85168, 2.29642, 0
13.7489, 12.729, 4.24631, 0
13.7483, 12.7277, 4.56069, 0
13.5102, 6.69969, 4.19008, 0
13.5027, 6.70377, 3.9308, 0
13.524, 6.71784, 1.92705, 0
12.8772, 14.0628, 4.01992, 0
13.0541, 13.8498, 2.72857, 0
13.0958, 13.8836, 1.80689, 0
13.1384, 13.8943, 1.49781, 0
13.0726, 13.8819, 1.1941, 0
13.3392, 7.85888, 1.79598, 0
13.2963, 7.8658, 1.54754, 0
13.3422, 7.86561, 1.2973, 0
13.1454, 13.5998, 4.68824, 0
13.1296, 13.5703, 4.36079, 0
13.1234, 13.5501, 4.03821, 0
13.7169, 13.0902, 4.43509, 0
13.1141, 13.5836, 3.10121, 0
13.7111, 13.0569, 3.49076, 0
13.1405, 13.6498, 2.17448, 0
13.7462, 13.0508, 2.82596, 0
13.1016, 13.5547, 1.23433, 0
13.4075, 13.3528, 3.04229, 0
13.7227, 13.0781, 2.02168, 0
13.6601, 12.751, 4.14037, 0
13.3141, 13.3298, 2.73064, 0
13.4272, 13.3886, 1.79875, 0
13.7476, 13.1072, 1.66997, 0
11.4391, 12.3959, 3.47313, 0
13.3083, 7.61525, 3.33877, 0
13.2677, 7.55505, 3.58076, 0
13.2697, 7.57175, 3.0738, 0
-11.6942, 19.0738, 5.70783, 0
-11.7317, 19.1156, 5.006, 0
-11.5244, 19.0062, 5.95134, 0
-11.1544, 19.3069, 5.91101, 0
-11.5248, 19.0118, 5.57609, 0
-11.5952, 18.9896, 5.96182, 0
-10.6837, 19.7638, 5.60244, 0
-11.1239, 19.2928, 5.52843, 0
-11.5291, 19.0238, 5.20537, 0
-11.3536, 19.1671, 5.21766, 0
-11.6025, 19.0016, 5.58853, 0
-11.3441, 19.1512, 5.96425, 0
-10.6875, 19.6825, 5.20843, 0
-11.5267, 19.1134, 5.36799, 0
-11.6049, 19.0055, 5.21555, 0
-10.6777, 19.6836, 5.95775, 0
-11.6331, 18.9582, 5.51402, 0
-11.347, 19.156, 5.5887, 0
-10.8575, 19.4558, 5.17437, 0
-10.8665, 19.3919, 5.90912, 0
-10.9802, 19.5401, 5.55459, 0
-12.0222, 18.8222, 5.90281, 0
-11.99, 18.8184, 5.15692, 0
-11.7657, 19.0693, 5.52395, 0
-11.5452, 3.50827, 3.47141, 0
-11.543, 4.27954, 2.81187, 0
-11.5422, -1.53771, 2.85014, 0
-11.5332, -1.94929, 3.41976, 0
-11.5307, -2.2416, 2.69424, 0
-11.5415, -2.00613, 3.42378, 0
-11.5373, 3.93792, 2.64808, 0
-11.5297, -1.6034, 2.58423, 0
-11.563, 3.83988, 2.89254, 0
-11.5437, -2.49725, 3.46461, 0
-11.5494, 4.39896, 3.1109, 0
-11.5453, 4.45077, 3.40942, 0
-11.5772, -1.52004, 3.14641, 0
-11.5388, 4.1515, 3.67927, 0
-11.5245, -2.13798, 3.45264, 0
-11.5446, -1.92442, 2.68968, 0
-11.5619, 4.34693, 3.31369, 0
-11.5504, 4.3359, 3.12773, 0
-11.546, 3.47219, 3.11418, 0
-11.5462, -1.89791, 3.45615, 0
-11.5384, -1.62944, 3.23621, 0
-11.5401, -2.44223, 2.46342, 0
-11.5446, 4.25755, 3.39061, 0
-11.5457, 3.55086, 3.23956, 0
-11.5407, 4.38571, 3.48353, 0
-11.5478, 3.55028, 2.78145, 0
-11.5221, -2.5023, 3.06769, 0
-11.5413, -2.44268, 2.69181, 0
-11.5486, -2.45116, 3.34768, 0
-11.5983, 4.27378, 2.76288, 0
-11.6357, 3.96376, 2.74547, 0
-11.5904, -1.50937, 3.38282, 0
-11.5972, 4.4169, 2.80701, 0
-11.5976, 4.42152, 3.02768, 0
-11.6355, 0.746398, 2.75002, 0
-11.5941, 3.99478, 3.4927, 0
-11.5718, 0.752843, 3.95889, 0
-11.596, -1.7716, 2.60442, 0
-11.554, 1.18785, 3.91323, 0
-11.6157, -1.59393, 2.70465, 0
-11.5009, 0.793377, 2.85862, 0
-11.6002, -2.0382, 2.62614, 0
-11.5849, 3.74272, 2.74559, 0
-11.5696, -2.13317, 3.31596, 0
-11.5593, 0.769133, 3.53692, 0
-11.4766, -4.84017, 4.19025, 0
-13.4733, 2.69147, 4.12557, 0
-11.4687, 0.729469, 1.91092, 0
-11.4811, 0.726529, 1.17005, 0
-11.444, 0.735625, 3.44293, 0
-11.5555, 0.731745, 4.79464, 0
-11.393, 1.32239, 4.08593, 0
-11.5775, 0.744695, 4.34784, 0
-11.596, 3.60077, 3.43656, 0
-11.3772, 0.983298, 3.46223, 0
-11.3741, 0.977755, 3.86115, 0
-11.4018, 1.01541, 1.18939, 0
-11.3686, 0.971932, 4.26748, 0
-11.6007, -1.76096, 3.41953, 0
-13.415, 2.94658, 4.63929, 0
-11.4055, 1.08865, 2.62225, 0
-11.5861, 4.25509, 3.56153, 0
-11.3927, 1.00237, 2.11772, 0
-11.4634, 0.731031, 2.28656, 0
-11.3934, 1.00492, 1.93025, 0
-11.534, -4.94246, 2.00406, 0
-11.5983, 0.400269, 1.19015, 0
-11.5891, -1.82116, 3.46608, 0
-13.4551, 2.6148, 4.41746, 0
-11.3902, 0.999672, 2.30588, 0
-13.4873, 2.49136, 4.1663, 0
-11.467, 0.730313, 2.0984, 0
-11.6211, 3.51068, 3.04725, 0
-11.3998, 1.01281, 1.37361, 0
-11.5661, 0.796866, 2.9313, 0
-13.5773, 2.13109, 3.43674, 0
-11.5169, -4.84271, 1.47824, 0
-11.4236, 0.74047, 4.66387, 0
-11.4402, 0.736373, 3.64102, 0
-11.3634, 0.966004, 4.68315, 0
-11.4388, 0.737307, 3.84187, 0
-11.5521, 1.19778, 2.92919, 0
-13.3977, 2.87554, 4.93906, 0
-11.9435, -4.06714, 2.2644, 0
-11.5646, 0.749766, 3.55842, 0
-11.5669, 0.745031, 4.38545, 0
-11.4855, 1.15921, 1.19479, 0
-11.5796, -2.30456, 3.43989, 0
-13.5368, 2.4507, 3.6335, 0
-11.4825, 1.1589, 1.37987, 0
-11.4311, 0.738857, 4.2482, 0
-13.1805, -4.88641, 2.92122, 0
-11.4522, 1.15584, 3.28079, 0
-11.4483, 1.15545, 3.47798, 0
-11.4681, 1.15745, 2.31652, 0
-14.0491, 0.949241, 1.32551, 0
-11.5362, -4.94321, 1.80051, 0
-11.4493, 1.1343, 3.03345, 0
-11.4702, 1.15766, 2.12722, 0
-13.7511, 2.1829, 3.80706, 0
-12.8939, -4.31202, 4.6989, 0
-11.5544, 1.19579, 2.73744, 0
-13.5448, 2.24701, 3.67448, 0
-11.3794, 0.986084, 3.26575, 0
-14.0239, 1.05466, 1.53735, 0
-13.6295, 2.6855, 4.81821, 0
-11.4734, -4.84002, 4.41079, 0
-11.5886, 0.402998, 3.67096, 0
-11.6306, 0.793518, 1.98387, 0
-12.9403, -4.52444, 4.31677, 0
-11.6201, 0.386663, 4.92838, 0
-13.6915, 2.42974, 4.30358, 0
-11.5415, 1.89146, 3.17915, 0
-11.4277, 0.739688, 4.45497, 0
-11.5317, -4.90737, 1.29711, 0
-11.4803, 0.820747, 2.55954, 0
-11.4853, -4.84155, 3.75653, 0
-13.134, -4.69214, 3.27242, 0
-11.3664, 0.969014, 4.47425, 0
-11.4418, 1.1548, 3.87828, 0
-11.6439, 0.792893, 1.79454, 0
-13.7777, 2.06091, 3.56397, 0
-11.5161, 1.51719, 2.56117, 0
-11.6192, 4.4336, 3.46499, 0
-11.5556, 1.19134, 2.35549, 0
-12.8551, -4.32406, 4.4134, 0
-13.658, 2.55443, 4.55705, 0
-11.474, 1.15804, 1.93924, 0
-11.5677, -4.94459, 4.72899, 0
-11.5773, 0.795996, 2.74119, 0
-11.4398, 1.5644, 1.37284, 0
-11.4481, 1.56832, 1.18942, 0
-11.483, 1.60016, 1.9386, 0
-11.4679, 1.59519, 2.12418, 0
-11.4557, 1.59061, 2.31091, 0
-11.5896, 4.37415, 3.33934, 0
-11.5849, -1.64178, 3.47232, 0
-11.3855, -4.94073, 3.56423, 0
-11.5003, -4.84223, 2.70168, 0
-11.6141, 0.390581, 1.93599, 0
-11.376, -4.82346, 3.28835, 0
-11.5035, -4.8425, 2.49522, 0
-11.602, 0.397858, 1.37529, 0
-11.5116, -4.92638, 3.01531, 0
-11.5983, 0.394786, 4.2857, 0
-11.4699, -4.84094, 4.86034, 0
-11.5916, 0.400285, 3.8735, 0
-13.0363, -4.93151, 3.5861, 0
-11.5758, 0.74306, 1.48823, 0
-11.6347, 0.723338, 2.08288, 0
-11.5487, -2.56173, 3.27831, 0
-12.9889, -4.7305, 3.9469, 0
-11.569, 0.733442, 1.891, 0
-11.9588, -4.07494, 1.06927, 0
-11.5611, 0.723666, 2.27243, 0
-11.9916, -4.06369, 1.66875, 0
-11.567, 1.51064, 1.09013, 0
-11.5821, 1.50117, 1.82481, 0
-11.556, 1.5101, 1.63796, 0
-11.5747, 1.50021, 2.38257, 0
-11.576, 0.761499, 4.62054, 0
-11.5686, 0.773786, 4.73779, 0
-11.5331, 1.8822, 1.11738, 0
-11.4925, 1.86267, 1.84557, 0
-11.5143, 1.87806, 2.22153, 0
-11.5181, 1.88394, 3.76081, 0
-11.4522, 1.85368, 4.54517, 0
-11.2055, -4.90956, 1.86056, 0
-11.1789, -4.91086, 4.05795, 0
-11.1876, 0.897683, 4.66418, 0
-11.5598, 1.18965, 2.16558, 0
-11.3057, 1.14586, 4.52898, 0
-11.466, 0.726181, 1.53733, 0
-11.3699, 1.07832, 4.68646, 0
-11.5587, -4.94275, 1.21367, 0
-11.5879, -4.93948, 2.209, 0
-11.6711, 0.79171, 1.41523, 0
-11.604, 0.794756, 2.36233, 0
-13.8682, 0.930703, 1.0134, 0
-11.5858, 0.820175, 1.22526, 0
-11.5855, 1.18191, 1.21845, 0
-13.8317, 1.23081, 1.1632, 0
-11.5752, 1.185, 1.59728, 0
-13.8151, 1.13545, 1.42963, 0
-11.5701, 1.18655, 1.78661, 0
-11.5648, -4.94745, 3.71318, 0
-11.5528, -4.94695, 3.92689, 0
-11.5546, 0.748651, 1.09708, 0
-11.5519, -4.94199, 4.05496, 0
-11.5637, -4.8558, 2.88697, 0
-11.5559, -4.85971, 2.45761, 0
-11.5846, -4.85565, 1.82139, 0
-11.6405, -4.85464, 1.61148, 0
-13.5026, 2.56806, 3.87616, 0
-11.5762, -1.98923, 3.45026, 0
-11.5703, -4.92611, 2.80517, 0
-11.4457, 1.84426, 4.13353, 0
-11.5941, -2.55312, 3.51204, 0
-11.5754, -4.93612, 4.35727, 0
-11.5569, -2.47299, 3.58162, 0
-11.5608, -4.92645, 3.37643, 0
-11.5681, 0.768634, 4.06648, 0
-13.5617, 2.32902, 3.39094, 0
-11.6206, -2.49351, 2.93163, 0
-11.568, 0.784672, 3.18503, 0
-11.5964, -2.52468, 2.83752, 0
-11.5623, 0.746724, 3.86696, 0
-11.5602, 3.70845, 3.49106, 0
-11.7579, 13.0519, 5.11661, 0
-11.5524, 6.7992, 5.1182, 0
-11.5554, 6.79725, 5.83338, 0
-11.3813, 6.86574, 5.29851, 0
-11.5829, 6.7308, 5.86678, 0
-11.5336, 12.9927, 5.18364, 0
-11.5362, 13.0169, 5.48215, 0
-11.545, 13.0483, 5.78671, 0
-11.3509, 7.05636, 5.79862, 0
-11.5743, 13.0568, 5.371, 0
-11.5754, 13.0537, 5.67378, 0
-13.8844, 9.94114, 5.35323, 0
-11.1255, 7.53655, 5.07802, 0
-13.8368, 10.0966, 5.70945, 0
-13.9194, 9.77383, 4.99765, 0
-14.1715, 9.76071, 5.49024, 0
-11.117, 7.46131, 5.37683, 0
-11.3258, 13.1111, 5.23689, 0
-14.1323, 9.92893, 5.85294, 0
-11.5261, 6.74175, 5.14845, 0
-11.3151, 13.0987, 5.83742, 0
-11.5731, 6.76828, 5.35273, 0
-11.6406, 12.9399, 5.26101, 0
-11.6405, 12.9397, 5.56381, 0
-11.6454, 12.9453, 4.96307, 0
-11.4009, 7.09186, 5.40827, 0
-11.3209, 13.1053, 5.53595, 0
-11.6344, 12.933, 5.86672, 0
-14.2166, 9.60414, 5.13863, 0
-11.1511, 7.25449, 5.82906, 0
-11.384, 7.07828, 5.16515, 0
-11.5176, 6.7387, 5.37984, 0
-11.4971, 6.7307, 5.84832, 0
-10.9804, 13.4759, 5.06008, 0
-11.153, 7.52711, 5.65351, 0
-10.8914, 13.6873, 4.98497, 0
-11.2345, 13.2261, 5.33276, 0
-10.9733, 13.4446, 5.35052, 0
-10.9681, 13.3924, 5.94209, 0
-10.9678, 13.415, 5.64365, 0
-11.3119, 7.45495, 5.10045, 0
-11.3651, 7.46555, 5.35949, 0
-11.3061, 7.45276, 5.58488, 0
-11.3941, 7.48602, 5.86926, 0
-10.8888, 13.6414, 5.26904, 0
-11.3461, 6.84332, 5.11346, 0
-11.3267, 6.99802, 5.84441, 0
13.7085, 0.821065, 2.9145, 0
13.6217, 4.41997, 3.47986, 0
13.591, 4.29835, 3.4013, 0
13.5914, 4.44003, 3.091, 0
13.6087, 4.37898, 2.78118, 0
13.6509, 0.804749, 3.8351, 0
13.5873, 4.25546, 3.51241, 0
13.6216, 3.89279, 3.52254, 0
13.6561, 0.797096, 2.59222, 0
13.6626, 0.831544, 1.49158, 0
13.744, 0.846863, 2.1004, 0
13.6673, 0.723299, 1.33163, 0
13.6291, 4.07957, 2.73297, 0
13.5886, 3.51985, 3.25061, 0
13.5921, -2.2966, 2.56102, 0
13.6686, 0.730367, 2.64646, 0
13.6218, 3.73904, 3.49873, 0
13.6003, -1.89719, 3.38745, 0
13.6621, -4.91246, 2.5309, 0
13.6392, -1.68615, 2.54147, 0
13.6858, -4.916, 1.37784, 0
13.5917, 4.43572, 3.29977, 0
13.6018, -1.89657, 2.60834, 0
13.6543, -4.92613, 1.79463, 0
13.5841, 1.2338, 2.73498, 0
13.5717, 1.23232, 2.9505, 0
13.4869, 0.748332, 1.50883, 0
13.6581, 0.62618, 1.45987, 0
13.608, 0.619421, 2.56391, 0
13.6436, 0.415604, 1.74307, 0
13.6173, 0.414956, 2.40686, 0
13.6681, -4.92313, 4.29591, 0
13.6302, 0.400242, 2.6312, 0
13.5067, 0.587762, 3.07592, 0
13.7079, 0.779905, 1.11041, 0
13.6116, 3.79805, 2.63495, 0
13.6872, 0.778081, 1.77474, 0
13.578, 3.95267, 3.44601, 0
13.7082, 0.777733, 2.44774, 0
13.3452, -4.86572, 3.52602, 0
13.3282, -4.8634, 4.75881, 0
13.3877, 0.740715, 1.28668, 0
13.4197, 0.722472, 2.39406, 0
13.3525, 0.745275, 1.94242, 0
13.3753, 0.733393, 2.16569, 0
13.6662, 0.715604, 4.52001, 0
13.3348, 0.757322, 1.72127, 0
13.2575, 0.926106, 1.07209, 0
13.7042, 0.830897, 3.72373, 0
13.7362, 0.872731, 3.44143, 0
13.4109, 1.12675, 3.83597, 0
12.5247, -0.240154, 2.98476, 0
13.6588, -4.91632, 1.14879, 0
13.3494, 0.721105, 4.68402, 0
13.6296, -2.48868, 3.52461, 0
12.4188, -0.185734, 1.96295, 0
13.601, -2.54672, 3.23164, 0
13.6626, 0.788585, 4.14862, 0
13.4405, 1.12923, 2.0486, 0
13.5315, -4.91934, 1.72148, 0
13.5228, -4.91619, 2.41958, 0
13.4148, 1.12707, 3.60715, 0
12.5115, -0.300529, 2.74881, 0
13.4411, 0.738909, 4.6018, 0
13.5871, -2.43197, 2.49888, 0
13.542, -4.92317, 1.03056, 0
13.365, 0.727102, 4.06602, 0
13.4695, 0.813883, 1.83101, 0
13.4645, 0.813578, 2.04878, 0
13.4182, 1.12736, 3.38002, 0
13.5233, 0.723421, 4.94551, 0
12.5046, -0.358881, 2.51716, 0
13.3684, 0.729999, 3.60577, 0
13.4787, 0.814441, 1.18139, 0
13.4763, 0.814291, 1.39734, 0
13.5238, -4.91654, 2.18559, 0
13.3219, 0.874709, 1.39016, 0
13.5351, -4.92064, 1.49059, 0
13.4622, 0.813443, 2.26791, 0
13.5653, 0.410643, 3.75475, 0
13.6776, 0.787399, 4.42183, 0
12.4635, -0.589578, 1.60988, 0
13.3186, 1.0801, 2.40325, 0
12.4819, -0.475723, 2.05876, 0
13.365, 0.951415, 2.99668, 0
13.4352, 1.12879, 2.26719, 0
13.6523, 0.794722, 4.7407, 0
13.3446, 1.09478, 2.18606, 0
12.473, -0.53284, 1.83338, 0
13.375, 0.953562, 2.55546, 0
13.6037, -2.54975, 3.0223, 0
13.6887, 0.416033, 1.08244, 0
13.402, 1.126, 4.53567, 0
12.4005, -0.300133, 1.5145, 0
12.4099, -0.243116, 1.73779, 0
13.3954, 1.12545, 4.77228, 0
13.485, -4.90243, 4.83892, 0
13.4884, -4.90367, 4.58786, 0
13.4347, 0.811777, 4.06822, 0
13.4241, 0.811141, 4.77441, 0
13.606, -2.55269, 2.81286, 0
13.3115, 0.870603, 2.03787, 0
13.424, 0.81113, 4.5354, 0
13.4389, 0.812034, 3.83747, 0
13.4426, 0.812258, 3.60851, 0
12.5563, 0.563068, 4.88601, 0
13.4495, 1.12999, 1.39693, 0
12.5291, 0.428726, 4.36337, 0
13.6141, -4.83531, 2.89065, 0
13.452, 1.1302, 1.18104, 0
12.5223, 0.36485, 4.11056, 0
12.4552, -0.00798953, 2.65414, 0
12.4612, 0.0510156, 2.88793, 0
13.5186, -4.91467, 2.65416, 0
13.6627, 0.726938, 1.97087, 0
13.6172, 3.47797, 2.85595, 0
12.4413, -0.0682669, 2.42086, 0
12.5434, 0.495583, 4.6229, 0
13.4065, 1.12638, 4.06658, 0
12.3803, -0.413088, 1.07316, 0
13.5759, -4.84129, 3.33581, 0
12.5491, -0.117733, 3.46468, 0
13.4426, 1.12941, 1.83045, 0
12.5988, 0.199941, 4.71828, 0
13.5006, -4.90813, 3.84913, 0
13.4926, -4.94802, 3.65964, 0
13.4912, -4.9047, 4.33903, 0
13.5419, -4.93166, 1.05169, 0
13.3667, 0.728555, 3.83489, 0
13.3617, 0.950456, 3.21977, 0
13.5544, -2.08715, 3.48136, 0
13.333, 0.943945, 4.59375, 0
13.6295, -2.18349, 3.15343, 0
13.345, 0.946315, 4.12845, 0
13.2982, 0.91126, 2.69394, 0
13.2928, 0.908631, 3.13773, 0
13.2741, 0.902743, 4.04263, 0
13.6049, -2.17819, 2.52081, 0
13.285, 0.90696, 3.36063, 0
13.2597, 0.898197, 4.74203, 0
13.6162, -2.14934, 2.6043, 0
13.2817, 0.905584, 3.58621, 0
13.3031, 0.867755, 2.4738, 0
13.5918, -1.50504, 2.9668, 0
13.5938, -1.78897, 3.45886, 0
13.6834, -4.89624, 2.57794, 0
13.3204, 1.10011, 4.46748, 0
12.5374, -0.17922, 3.22335, 0
13.5885, -1.56413, 3.33222, 0
13.6337, 0.430145, 1.52245, 0
13.2875, 1.08412, 4.69448, 0
13.615, 3.53564, 2.73923, 0
13.6749, 0.617471, 1.68132, 0
12.4336, -0.126467, 2.19155, 0
13.7238, -4.90464, 2.10801, 0
13.2997, 1.07932, 3.98913, 0
13.7123, 19.0566, 5.37219, 0
13.6897, 19.0623, 5.04088, 0
13.7111, 19.0521, 5.55107, 0
12.6293, 20.0772, 5.037, 0
13.6607, 19.0292, 5.59902, 0
13.6563, 19.0231, 5.99056, 0
13.7641, 18.7905, 5.35431, 0
13.3601, 19.1751, 5.47366, 0
13.364, 19.1806, 5.08538, 0
13.0017, 19.5154, 5.94015, 0
13.3931, 19.1933, 5.59543, 0
13.3559, 19.169, 5.86443, 0
13.6285, 19.0115, 5.47865, 0
13.6648, 19.0348, 5.21009, 0
13.6315, 19.0157, 5.08969, 0
13.3482, 19.1618, 5.4429, 0
13.2678, 19.1918, 5.88906, 0
13.0029, 19.502, 5.14023, 0
13.6252, 19.0069, 5.87022, 0
13.6135, 18.9942, 5.84023, 0
12.8822, 19.8485, 5.76788, 0
12.8542, 19.856, 4.98089, 0
12.9309, 19.8776, 5.3784, 0
13.0111, 19.5225, 5.54199, 0
13.2604, 19.3557, 5.8827, 0
13.1546, 19.3932, 5.28506, 0
13.3023, 19.3418, 5.14054, 0
13.344, 19.1562, 5.83368, 0
-11.5449, 9.50536, 3.55243, 0
-11.57, 10.3138, 2.79915, 0
-11.5443, 10.3779, 2.94355, 0
-11.5289, 10.4514, 3.39263, 0
-11.5385, 9.51166, 3.39335, 0
-11.5725, 9.50062, 2.77094, 0
-11.7717, 13.067, 4.04876, 0
-11.6797, 12.9011, 4.02125, 0
-14.4051, 8.8343, 3.46429, 0
-11.6948, 12.9132, 2.87401, 0
-11.7068, 12.922, 1.74779, 0
-11.2606, 13.2361, 4.75561, 0
-14.3658, 8.9793, 3.78595, 0
-14.3326, 9.13488, 4.11616, 0
-11.1895, 7.31745, 2.59687, 0
-11.5808, 13.0725, 4.77743, 0
-11.6019, 13.1449, 1.36011, 0
-11.6033, 13.1504, 1.08201, 0
-11.5937, 13.1197, 2.47848, 0
-11.5969, 13.1274, 2.1979, 0
-11.3416, 7.11848, 1.23242, 0
-11.5368, 12.9755, 4.89042, 0
-11.6496, 12.9499, 4.66736, 0
-11.5833, 13.0795, 4.48388, 0
-10.9103, 13.6999, 1.84603, 0
-11.6722, 12.975, 2.36813, 0
-11.4305, 6.87161, 1.76922, 0
-14.1044, 9.00917, 3.32982, 0
-11.268, 13.2612, 3.59878, 0
-11.3558, 7.11832, 3.13903, 0
-14.1407, 8.86558, 3.01397, 0
-11.3442, 13.1323, 3.20206, 0
-11.3294, 13.1152, 4.64384, 0
-11.3523, 7.11612, 3.36316, 0
-11.3271, 7.08901, 2.74345, 0
-11.3989, 6.93416, 2.24363, 0
-14.2492, 9.43644, 4.78783, 0
-11.5924, 13.1143, 2.76054, 0
-14.442, 8.6896, 3.14714, 0
-11.6775, 12.8966, 3.19641, 0
-14.4767, 8.54535, 2.83443, 0
-11.3775, 7.46796, 4.40806, 0
-11.3622, 13.1532, 1.52066, 0
-11.3647, 13.1561, 1.2434, 0
-14.0332, 9.30763, 3.97906, 0
-14.1749, 8.72243, 2.70259, 0
-11.8524, 12.8227, 2.6546, 0
-11.3895, 6.92841, 2.90004, 0
-11.396, 6.93236, 2.46127, 0
-10.9661, 13.8518, 1.30515, 0
-14.2879, 9.28024, 4.44735, 0
-11.3812, 6.92337, 3.56951, 0
-11.5945, 10.3416, 3.61151, 0
-11.36, 13.1506, 1.79861, 0
-14.0743, 9.16334, 3.65378, 0
-11.3739, 6.91895, 4.25573, 0
-14.2149, 8.58891, 2.39802, 0
-11.1306, 7.74422, 4.19698, 0
-11.8775, 13.096, 1.29267, 0
-11.13, 7.76292, 3.51726, 0
-11.4802, 13.0185, 2.63471, 0
-11.6766, 12.9799, 2.0875, 0
-11.3855, 6.92598, 3.34517, 0
-11.6697, 12.9723, 2.65022, 0
-11.3806, 6.92298, 3.79683, 0
-11.3929, 6.93046, 2.68005, 0
-11.5653, 9.95175, 3.57736, 0
-11.6159, 6.85442, 2.71064, 0
-11.6255, 6.86007, 2.05023, 0
-11.3671, 7.12538, 2.25597, 0
-11.5775, 10.3459, 3.32526, 0
-13.9603, 9.61823, 4.65273, 0
-11.6193, 6.85642, 2.48942, 0
-11.372, 7.12846, 1.82117, 0
-11.409, 6.94031, 1.59669, 0
-11.3537, 13.1433, 2.35669, 0
-11.594, 6.8415, 4.30335, 0
-11.6312, 6.86346, 1.61475, 0
-11.4142, 6.94343, 1.16886, 0
-11.356, 13.146, 2.07703, 0
-11.5888, 6.83841, 4.77703, 0
-11.3377, 7.10698, 4.27747, 0
-11.6382, 6.86755, 1.18226, 0
-11.3785, 7.13253, 1.38993, 0
-11.5917, 6.84012, 4.53908, 0
-13.9982, 9.46276, 4.31322, 0
-11.3343, 7.10485, 4.74902, 0
-11.0466, 13.4531, 1.62402, 0
-11.601, 9.68384, 3.56483, 0
-11.3433, 7.11047, 4.04661, 0
-11.3696, 7.12693, 2.03809, 0
-11.6147, 10.3418, 3.06372, 0
-11.3484, 7.11365, 3.58881, 0
-11.6526, 12.9533, 4.08076, 0
-11.6814, 12.9852, 1.5281, 0
-11.3631, 13.038, 4.18941, 0
-14.2815, 8.31392, 1.79811, 0
-11.6534, 12.9541, 4.37376, 0
-11.5813, 13.0815, 4.19089, 0
-10.9148, 13.7456, 1.5735, 0
-11.339, 13.1263, 3.77333, 0
-11.6851, 12.9893, 1.24961, 0
-11.3361, 13.123, 4.06156, 0
-11.5654, 6.89087, 2.88137, 0
-11.5716, 6.90207, 1.78128, 0
-11.2104, 7.30705, 1.94567, 0
-10.9206, 13.7399, 1.01782, 0
-11.6166, 13.1383, 3.49139, 0
-11.2095, 7.32504, 1.51717, 0
-11.2104, 7.33488, 1.30404, 0
-14.2453, 8.44679, 2.095, 0
-11.7632, 13.0509, 2.95292, 0
-11.1999, 7.49623, 1.10186, 0
-11.2005, 7.52148, 1.75076, 0
-11.189, 7.50414, 1.965, 0
-11.2134, 7.53982, 1.53699, 0
-11.1583, 7.47779, 3.28194, 0
-11.1451, 7.48103, 4.19449, 0
-14.3421, 8.04166, 1.21343, 0
-11.195, 7.55726, 4.45746, 0
-14.3161, 8.18139, 1.50479, 0
-11.1618, 7.52407, 4.67908, 0
-11.3694, 13.31, 2.74373, 0
-11.2614, 13.2506, 3.01084, 0
-11.5593, 9.63521, 2.4199, 0
-11.6115, 9.61227, 2.88072, 0
-11.0572, 13.5076, 1.07325, 0
-11.608, 9.55291, 3.17631, 0
-11.0419, 13.4964, 2.18739, 0
-11.0553, 13.5339, 1.912, 0
-11.0264, 13.4833, 3.31649, 0
-10.9961, 13.4934, 3.89084, 0
-10.9846, 13.4354, 4.45931, 0
-11.0104, 13.5329, 3.61119, 0
-11.5459, 6.74949, 4.693, 0
-10.9893, 13.4631, 4.17402, 0
-10.9922, 13.513, 4.77338, 0
-11.3673, 6.91491, 4.48713, 0
-11.3594, 7.4827, 1.08945, 0
-11.3822, 7.4845, 1.73385, 0
-11.5866, 10.4307, 2.82891, 0
-11.3447, 7.48146, 1.51697, 0
-11.4238, 7.50528, 2.83296, 0
-11.6277, 10.4419, 3.60946, 0
-11.5356, 6.73566, 4.45989, 0
-11.3418, 7.48003, 3.04041, 0
-11.324, 7.4561, 4.16225, 0
-11.1602, 7.55948, 2.59585, 0
-11.1516, 7.57616, 2.381, 0
-11.367, 7.46448, 4.87701, 0
-11.3648, 6.91339, 4.7225, 0
-11.1469, 7.7695, 1.5482, 0
-11.1349, 7.73834, 1.75827, 0
-11.1696, 7.80825, 1.339, 0
-11.417, 13.0404, 2.01966, 0
-11.1379, 7.76246, 3.07106, 0
-11.1633, 7.81045, 3.30733, 0
-11.4933, 13.0376, 1.79668, 0
-11.1693, 7.79614, 3.98631, 0
-11.1935, 13.52, 2.37784, 0
-11.1752, 13.5088, 2.93896, 0
-11.1365, 13.5005, 2.65482, 0
-11.7001, 13.0694, 3.35685, 0
-11.6464, 12.9105, 3.72795, 0
-10.8934, 13.7133, 3.53753, 0
-10.8905, 13.6685, 3.81421, 0
-10.8876, 13.716, 4.1133, 0
-10.9172, 13.763, 4.71192, 0
-11.1561, 7.49884, 3.96875, 0
-11.857, 12.8368, 1.54657, 0
-11.17, 7.51849, 3.74544, 0
-11.8896, 12.8535, 1.27234, 0
-11.8571, 13.0913, 2.94288, 0
-11.5411, 12.9596, 4.60019, 0
-11.5988, 6.74201, 4.70416, 0
-11.6017, 6.84604, 3.83962, 0
-11.5769, 6.74026, 4.2459, 0
-11.5647, 6.74446, 3.79824, 0
-11.4627, 13.0197, 4.04728, 0
-11.6113, 6.78425, 3.5413, 0
-11.3363, 7.10607, 4.51211, 0
-11.5936, 6.8045, 3.42012, 0
-11.6197, 10.4055, 3.10663, 0
-11.6195, 10.3992, 3.34986, 0
-11.5578, 7.28428, 1.31369, 0
-11.5536, 7.21599, 1.44006, 0
-11.7508, 13.0684, 1.84534, 0
-11.1571, 7.79174, 4.44693, 0
-11.4028, 13.0467, 3.49512, 0
31.5583, -38.5288, 1.96751, 0
13.5953, 15.7438, 2.77205, 0
13.5953, 15.6753, 2.48394, 0
13.6055, 16.3354, 2.47369, 0
13.4355, 19.3559, 4.84326, 0
13.6155, 15.877, 2.82492, 0
13.4051, 19.3607, 3.56681, 0
12.9832, 19.6503, 2.05141, 0
12.6047, 20.1247, 1.18974, 0
12.6151, 20.1918, 1.57722, 0
13.6062, 19.0314, 1.86784, 0
12.6092, 20.0436, 2.70684, 0
12.5999, 20.0783, 3.09635, 0
12.596, 20.0741, 4.25522, 0
13.5777, 19.0475, 3.69246, 0
12.6093, 19.9989, 4.62841, 0
13.5898, 18.9728, 3.81103, 0
13.652, 15.8229, 3.11001, 0
13.6097, 16.0586, 2.91857, 0
12.9348, 19.9695, 1.52239, 0
13.2941, 19.3779, 4.6949, 0
13.5816, 19.0157, 4.58177, 0
13.6476, 16.3765, 3.85589, 0
13.7295, 19.0215, 1.44949, 0
13.6543, 19.0461, 1.2739, 0
13.6275, 19.0121, 4.28961, 0
13.692, 19.0724, 2.92233, 0
10.7762, 18.3019, 1.86486, 0
13.5643, 16.2498, 2.70696, 0
13.345, 19.4405, 4.31144, 0
13.5604, 16.4583, 3.36893, 0
13.7055, 18.9953, 2.94714, 0
13.7232, 19.0145, 1.8227, 0
13.585, 16.2388, 3.57508, 0
12.6033, 20.1288, 2.33631, 0
6.8036, 19.7483, 3.14292, 0
13.6625, 19.059, 1.67719, 0
13.6444, 19.0335, 2.39594, 0
13.6077, 19.018, 2.95973, 0
13.3628, 19.3619, 3.00201, 0
7.70481, 19.0756, 3.46094, 0
13.3867, 19.3539, 4.39106, 0
7.07566, 19.4087, 3.57291, 0
13.5914, 19.0432, 1.64078, 0
13.3814, 19.2056, 3.17619, 0
13.3199, 19.3082, 1.30521, 0
13.6524, 19.0449, 2.80173, 0
13.6527, 16.3995, 3.2542, 0
13.648, 19.0381, 2.02118, 0
13.3942, 19.2239, 1.67574, 0
13.6887, 19.0269, 3.45979, 0
13.3276, 19.3019, 2.05081, 0
12.9789, 19.6122, 1.27559, 0
13.3843, 19.2097, 2.79932, 0
13.3555, 19.1715, 4.66868, 0
12.9878, 19.5611, 3.19775, 0
13.3708, 19.1903, 4.31571, 0
12.9997, 19.5651, 2.80971, 0
13.332, 19.177, 4.40496, 0
6.84893, 19.2267, 3.67401, 0
13.8608, 18.8424, 2.31842, 0
13.3912, 19.2196, 2.04939, 0
10.5086, 18.5583, 2.22685, 0
7.09228, 19.1934, 3.57084, 0
13.4069, 19.2129, 4.43757, 0
13.6343, 19.0197, 4.70317, 0
13.6406, 19.0287, 2.77171, 0
13.6003, 16.1562, 3.43682, 0
10.7189, 18.0323, 1.0276, 0
10.8346, 18.5783, 2.72602, 0
13.9591, 18.8059, 4.03401, 0
13.3872, 19.2139, 2.42374, 0
13.6549, 19.1317, 3.75407, 0
7.4659, 19.221, 3.13187, 0
13.2916, 19.4308, 2.36645, 0
13.7099, 19.0971, 1.42467, 0
10.8035, 18.4361, 2.29182, 0
13.3739, 19.1948, 3.93397, 0
7.26239, 19.3358, 2.97782, 0
12.9934, 19.5412, 2.42034, 0
6.61015, 19.7436, 2.8226, 0
13.5987, 19.032, 3.1712, 0
10.8646, 18.7201, 3.16655, 0
12.9897, 19.589, 3.98175, 0
13.3259, 19.2864, 3.59668, 0
6.96424, 19.221, 2.8197, 0
12.9121, 19.9411, 2.66976, 0
13.3959, 19.3511, 4.0831, 0
7.15352, 19.4189, 3.21839, 0
13.6007, 19.04, 1.11592, 0
13.4247, 19.238, 2.92131, 0
13.6562, 19.0501, 2.42597, 0
13.175, 19.3828, 4.49752, 0
13.5553, 16.4654, 3.70532, 0
7.46805, 19.2265, 2.79874, 0
13.6517, 19.057, 3.48093, 0
13.1973, 19.55, 2.19822, 0
7.52234, 19.2155, 3.823, 0
13.1733, 19.45, 3.34522, 0
13.7154, 19.1139, 4.84464, 0
13.382, 19.2062, 1.64493, 0
7.46361, 19.2151, 3.46637, 0
13.254, 19.4054, 3.14119, 0
13.7184, 19.0846, 4.43822, 0
13.6598, 19.0552, 2.05121, 0
13.1733, 19.4876, 1.80854, 0
13.6861, 19.1573, 3.38452, 0
13.8388, 18.812, 4.20931, 0
13.3472, 19.2712, 2.83477, 0
13.6765, 19.0301, 2.13155, 0
13.6904, 19.0413, 3.38467, 0
13.4585, 19.3647, 1.88746, 0
13.447, 19.2695, 1.05253, 0
7.51518, 19.2633, 3.26308, 0
13.2877, 19.4402, 2.75562, 0
13.8012, 19.07, 4.15007, 0
12.6024, 20.1314, 3.49046, 0
13.3879, 19.3738, 1.21295, 0
6.43949, 19.2784, 3.42178, 0
13.6662, 19.064, 1.30395, 0
13.4023, 19.3502, 1.58513, 0
10.538, 18.6975, 2.65994, 0
13.6609, 18.9298, 4.0157, 0
13.3413, 19.2733, 2.52366, 0
13.6687, 19.0402, 4.8236, 0
13.3412, 19.1826, 3.27328, 0
13.0018, 19.6286, 4.77576, 0
13.6747, 19.0484, 4.44009, 0
13.3475, 19.2657, 3.09918, 0
10.7479, 18.1672, 1.44351, 0
6.46669, 19.2579, 2.78967, 0
6.60716, 19.2254, 3.20418, 0
13.2266, 19.4245, 1.21744, 0
13.7564, 19.0737, 2.64117, 0
6.55086, 19.2046, 3.53193, 0
6.45231, 19.2838, 3.10315, 0
6.42876, 19.2791, 3.74075, 0
13.0012, 19.6618, 1.664, 0
13.3652, 19.383, 3.373, 0
6.57327, 19.2489, 3.78138, 0
13.6135, 16.3841, 2.94359, 0
13.3395, 19.3514, 3.8416, 0
13.3769, 19.1992, 3.55407, 0
7.23622, 19.2725, 2.78353, 0
13.347, 19.2569, 4.11149, 0
6.81895, 19.2551, 3.20043, 0
13.5859, 16.4474, 2.78309, 0
7.72422, 19.0795, 3.12789, 0
13.4107, 19.3931, 2.46618, 0
10.571, 18.8449, 3.10084, 0
13.4947, 19.3674, 1.9545, 0
13.6116, 15.5509, 3.62161, 0
6.78813, 19.2854, 3.87103, 0
13.3218, 19.3011, 4.83499, 0
13.5912, 15.7017, 3.28071, 0
13.3183, 19.2272, 3.97078, 0
6.97842, 19.2911, 3.00858, 0
13.5732, 15.7132, 3.01558, 0
13.5769, 16.0187, 3.64145, 0
12.8488, 19.9302, 1.14582, 0
13.4141, 19.3531, 2.74713, 0
13.5636, 15.911, 2.88632, 0
-15.0316, 15.0227, 2.46752, 0
-14.9014, 15.5513, 3.67556, 0
-14.9442, 15.3702, 3.26603, 0
1.45846, -17.9847, 5.86623, 0
0.791709, -17.2511, 5.63126, 0
1.09391, -18.082, 5.29227, 0
1.4415, -18.0611, 5.29853, 0
1.1779, -17.1101, 5.18401, 0
0.741922, -17.2642, 5.86252, 0
1.08587, -18.1227, 5.01224, 0
1.43307, -18.0986, 5.01738, 0
0.829392, -17.262, 5.31244, 0
0.828226, -17.2773, 5.0362, 0
1.17741, -17.1029, 5.7815, 0
0.833414, -17.1289, 5.18357, 0
0.833469, -17.13, 5.48234, 0
1.17745, -17.1035, 5.48035, 0
1.44997, -18.0232, 5.58144, 0
1.1024, -18.0453, 5.57551, 0
0.844718, -17.1632, 5.877, 0
0.845098, -17.1715, 5.57769, 0
1.21162, -17.2761, 5.86822, 0
1.25203, -17.2592, 5.35581, 0
1.25898, -17.2507, 5.05247, 0
1.35574, -17.1059, 4.9656, 0
1.0691, -16.9437, 5.14645, 0
0.745042, -16.9739, 5.77081, 0
0.721073, -17.0641, 5.50415, 0
1.22415, -17.2544, 5.59462, 0
-11.5607, 0.759122, 5.62074, 0
-11.6356, 0.771682, 5.96248, 0
-11.5685, 0.756344, 5.50825, 0
-11.5673, 0.729047, 5.73313, 0
-11.5586, 0.7332, 5.21367, 0
-11.5539, 0.737991, 5.33245, 0
-11.5562, 0.753928, 5.10621, 0
-11.5553, 0.728549, 5.9393, 0
-11.5667, -4.92759, 5.61915, 0
-11.5536, -4.93634, 5.50704, 0
-11.562, -4.86276, 5.97106, 0
-11.5896, -4.82053, 5.12375, 0
-11.3613, 1.56879, 5.31198, 0
-11.3389, 1.55884, 5.74618, 0
-11.3305, 1.55419, 5.96937, 0
-11.2482, 0.775948, 5.70338, 0
-11.3624, 1.07626, 5.08179, 0
-12.8145, -3.98261, 5.28978, 0
-13.3286, 3.13978, 5.47672, 0
-11.4159, 0.742129, 5.08997, 0
-12.7048, -3.59294, 5.56623, 0
-13.3534, 3.21117, 5.17304, 0
-13.5982, 2.81756, 5.08335, 0
-12.6497, -3.35771, 5.99029, 0
-13.3647, 3.00728, 5.20588, 0
-11.467, -4.87985, 5.8112, 0
-13.2969, 3.27932, 5.75666, 0
-13.5639, 2.95049, 5.35248, 0
-12.7281, -3.7784, 5.39562, 0
-13.4934, 3.22489, 5.90786, 0
-11.2728, 1.06509, 5.29397, 0
-11.3124, 0.912284, 5.2922, 0
-11.5515, 0.411809, 5.5573, 0
-12.8105, -3.29792, 5.79455, 0
-13.5343, 3.09036, 5.63052, 0
-12.8414, -4.09413, 5.08974, 0
-11.4644, -4.83983, 5.08751, 0
-11.4884, 0.771555, 5.14838, 0
-11.4797, 0.770974, 5.58906, 0
-13.318, 3.34467, 5.44608, 0
-11.4081, 1.82958, 5.81052, 0
-11.8854, -4.04714, 5.92318, 0
-11.4027, 0.745776, 5.98004, 0
-11.4059, 0.744831, 5.75238, 0
-11.3434, 0.717621, 5.46254, 0
-12.8916, -3.64455, 5.16762, 0
-12.7597, -3.8194, 5.15837, 0
-12.7631, -3.75291, 5.70273, 0
-11.2464, 1.11216, 5.10989, 0
-11.2221, 1.09073, 5.51262, 0
-11.2961, 1.12669, 5.76084, 0
-11.4632, -4.84057, 5.31946, 0
13.656, -11.3932, 1.27377, 0
13.6118, -7.56776, 3.28185, 0
13.6578, -14.5122, 3.00613, 0
13.6285, -13.842, 3.76679, 0
13.586, -7.92008, 3.485, 0
13.603, -8.49517, 3.47343, 0
13.6557, -8.45634, 2.73667, 0
13.6523, -8.45805, 2.95918, 0
13.6332, -14.2224, 2.52486, 0
13.5998, -8.45279, 2.52706, 0
13.6846, -5.29137, 4.65234, 0
13.6175, -14.1412, 2.69639, 0
13.603, -13.8719, 2.59505, 0
13.6346, -14.475, 2.54686, 0
13.6005, -13.484, 3.36885, 0
13.5852, -13.9728, 3.40041, 0
13.5628, -14.5521, 3.24407, 0
13.6155, -7.52109, 2.59757, 0
13.5504, -8.15283, 3.38773, 0
13.6532, -4.96316, 3.40254, 0
13.5927, -7.68115, 2.63796, 0
13.3708, -11.2413, 3.2595, 0
13.3667, -11.2405, 3.54632, 0
13.6929, -11.0328, 1.29665, 0
13.659, -5.28298, 4.61281, 0
13.2974, -5.04729, 3.00928, 0
13.6792, -11.0267, 1.85735, 0
13.3104, -5.222, 3.49927, 0
13.592, -8.09435, 2.58109, 0
13.6732, -11.0244, 2.13883, 0
13.3202, -5.24182, 3.98983, 0
13.6379, -8.20648, 2.85139, 0
13.6654, -11.0206, 2.4209, 0
13.2463, -5.20058, 4.23858, 0
13.6867, -11.0302, 1.57677, 0
13.3334, -12.7718, 1.08998, 0
13.7001, -11.0361, 1.01703, 0
13.656, -5.26496, 4.31658, 0
13.3027, -5.04169, 2.7741, 0
13.6569, -5.26603, 3.55001, 0
13.2585, -5.16985, 2.07344, 0
13.6638, -5.29837, 3.98623, 0
13.3468, -5.24876, 2.31938, 0
13.4184, -5.27612, 3.67911, 0
13.4468, -5.27694, 2.01858, 0
13.4511, -5.27716, 1.78608, 0
13.4255, -5.27739, 3.43822, 0
13.4156, -5.27651, 3.92296, 0
13.3811, -5.04968, 2.6984, 0
13.3407, -5.04771, 4.87286, 0
13.6537, -11.0524, 2.87599, 0
13.3787, -5.0502, 2.93354, 0
13.5869, -10.9996, 1.23678, 0
13.4351, -11.3487, 2.14196, 0
13.4463, -11.3603, 1.29861, 0
13.3995, -5.23636, 3.3912, 0
13.431, -5.2515, 1.5138, 0
13.4332, -5.25274, 1.28312, 0
6.40721, -12.8339, 1.00748, 0
13.4405, -11.3378, 1.53839, 0
13.4567, -12.0491, 4.70656, 0
13.4043, -5.2767, 4.66646, 0
13.3899, -12.4425, 2.73907, 0
13.4422, -5.27658, 2.25193, 0
13.4462, -12.1057, 4.42057, 0
13.3985, -12.3865, 3.01604, 0
13.439, -12.1641, 4.13747, 0
13.6739, -5.28524, 1.86927, 0
13.5277, -12.0012, 3.21142, 0
13.4086, -5.27685, 4.41655, 0
13.5004, -12.1683, 2.38528, 0
13.4525, -12.442, 1.0211, 0
13.6273, -14.4397, 3.24289, 0
13.5391, -11.9466, 3.48962, 0
13.7009, -4.9526, 2.39472, 0
13.5188, -12.0573, 2.93511, 0
13.655, -4.96376, 1.68875, 0
13.416, -5.23696, 2.42179, 0
13.4337, -5.2439, 1.26167, 0
13.7091, -5.26702, 1.49848, 0
13.0414, -6.04266, 4.20705, 0
13.6751, -4.96901, 1.27614, 0
13.3207, -11.1875, 3.73036, 0
13.3707, -12.5524, 2.18718, 0
13.4296, -11.3286, 2.38402, 0
13.6075, -10.9411, 1.58599, 0
13.6589, -10.9126, 4.55568, 0
13.3525, -12.6625, 1.63797, 0
13.6764, -5.28715, 2.56325, 0
13.3312, -5.05123, 1.15732, 0
13.3617, -12.6076, 1.91236, 0
13.582, -10.9972, 1.52895, 0
13.4244, -5.24025, 1.95542, 0
13.5723, -10.9894, 2.36962, 0
13.623, -14.4462, 3.56276, 0
13.3427, -12.717, 1.36383, 0
13.6987, -10.9428, 1.69922, 0
13.684, -4.97082, 1.49854, 0
13.3823, -5.22381, 4.84474, 0
13.4282, -5.24174, 1.72352, 0
13.5442, -10.9666, 4.66963, 0
13.5665, -10.9847, 2.93537, 0
13.5882, -8.55009, 2.84123, 0
13.3326, -11.3027, 4.61928, 0
13.0227, -6.15155, 3.71918, 0
13.4318, -5.24314, 1.49236, 0
13.5469, -10.9688, 4.37538, 0
13.0281, -6.26317, 1.7598, 0
13.3481, -11.3003, 3.40908, 0
12.9254, -6.72252, 1.1626, 0
13.4117, -11.3135, 3.81695, 0
13.5798, -10.9954, 1.80848, 0
13.3895, -5.22662, 4.34457, 0
13.4013, -5.23126, 3.61113, 0
13.5682, -10.9861, 2.65165, 0
13.3361, -11.3018, 4.31376, 0
13.0022, -6.25798, 3.23949, 0
13.1478, -11.4553, 4.74831, 0
13.3862, -5.22534, 4.59356, 0
13.5762, -10.9925, 2.08861, 0
13.3946, -5.22862, 3.85282, 0
12.9336, -6.67188, 1.38879, 0
13.4088, -11.311, 4.10865, 0
13.3624, -11.2395, 3.83481, 0
13.5097, -12.1129, 2.65977, 0
13.4019, -11.3052, 4.69806, 0
13.438, -11.3356, 1.81959, 0
13.0362, -6.21151, 1.98852, 0
13.5789, -14.4594, 2.71308, 0
13.4123, -5.27677, 4.16875, 0
13.4896, -12.2224, 2.11125, 0
13.1168, -5.73187, 4.11876, 0
13.1343, -5.6197, 4.61517, 0
13.4176, -11.3185, 3.5279, 0
13.149, -5.56385, 4.86983, 0
13.4042, -11.3167, 4.44277, 0
12.9493, -6.56979, 1.84367, 0
13.7272, -10.9301, 4.84683, 0
13.5494, -10.9708, 4.08327, 0
13.0807, -5.9493, 3.15367, 0
13.5246, -10.937, 4.32867, 0
13.2724, -5.03312, 4.45399, 0
13.6697, -11.0248, 2.75168, 0
13.6239, -8.06377, 3.5978, 0
13.6507, -5.26595, 2.43426, 0
13.3342, -5.25541, 4.24151, 0
13.6256, -8.48428, 3.26277, 0
13.347, -5.26864, 4.49573, 0
13.653, -14.4247, 2.82769, 0
13.3371, -5.22191, 1.6191, 0
13.6771, -5.25758, 3.24671, 0
13.3389, -5.23027, 1.85117, 0
13.2157, -11.4194, 1.60705, 0
13.5515, -10.9414, 4.04191, 0
13.1071, -5.78685, 3.87396, 0
13.4751, -10.9319, 4.90842, 0
13.0969, -5.84118, 3.63132, 0
13.497, -10.9321, 4.61671, 0
13.5514, -10.9484, 2.88909, 0
13.6855, -5.25997, 1.11854, 0
13.0323, -6.09745, 3.96205, 0
13.3011, -11.1664, 4.89842, 0
13.3328, -11.2331, 4.32183, 0
13.3239, -11.1727, 3.44096, 0
13.3239, -11.2078, 4.02387, 0
13.3425, -11.2119, 2.59023, 0
13.342, -11.1943, 2.30631, 0
13.5749, -11.7183, 4.61422, 0
13.6505, -5.26941, 1.9796, 0
13.5175, -10.8784, 3.71082, 0
13.4939, -10.8755, 2.55379, 0
13.5409, -10.8889, 1.7085, 0
13.5243, -10.8849, 1.14242, 0
13.2576, -11.1425, 4.54977, 0
13.3011, -11.1417, 1.67409, 0
13.2924, -11.1016, 1.39222, 0
13.6538, -11.3822, 1.83206, 0
13.345, -5.26921, 4.78802, 0
13.3386, -5.47461, 2.42231, 0
13.4352, -5.55908, 2.19927, 0
13.2235, -11.4309, 1.32737, 0
13.234, -11.4447, 1.04769, 0
13.0001, -6.41581, 1.0791, 0
13.2268, -11.4948, 2.1746, 0
12.9965, -6.31166, 3.0038, 0
13.1576, -11.4052, 3.86915, 0
13.6161, -14.4374, 3.12652, 0
13.2111, -11.4762, 2.45514, 0
13.3784, -11.2743, 3.35696, 0
13.6609, -11.0045, 4.08455, 0
13.6521, -11.0016, 3.807, 0
13.6697, -11.0074, 4.36379, 0
13.6245, -10.9338, 1.96229, 0
13.653, -10.9354, 2.22825, 0
13.6569, -10.9299, 4.11351, 0
13.5631, -13.6161, 2.64123, 0
13.7173, -10.9233, 1.06352, 0
13.7216, -10.9278, 1.59319, 0
13.6704, -10.9239, 2.38986, 0
13.6474, -7.94702, 3.29257, 0
13.6517, -11.0138, 4.70595, 0
13.4894, -5.26861, 3.11565, 0
13.5328, -5.30462, 2.6474, 0
13.6183, -7.71731, 4.04378, 0
13.6806, -11.0377, 3.208, 0
13.5206, -11.3814, 2.93624, 0
13.6295, -8.481, 3.0041, 0
13.5918, -8.39925, 2.69715, 0
13.6865, -10.9623, 3.73142, 0
13.6299, -10.9491, 2.31513, 0
13.5925, -10.9446, 3.16193, 0
13.4309, -11.3407, 2.78484, 0
13.6111, -14.5613, 3.03352, 0
12.9855, -6.3636, 2.76841, 0
13.1662, -11.4176, 3.58427, 0
13.5935, -13.777, 3.38726, 0
-25.482, 37.6432, 1.00592, 0
-26.1779, 39.2126, 1.10237, 0
-26.9538, 34.8309, 1.03622, 0
-29.0186, 38.1706, 1.27125, 0
-31.7419, 36.4114, 1.1162, 0
-28.7352, 35.4921, 1.00857, 0
-30.7443, 39.9596, 1.18113, 0
-30.904, 36.8212, 1.24258, 0
-31.0617, 35.0059, 1.21415, 0
-30.7626, 38.7805, 1.26919, 0
-28.1311, 38.1031, 1.04895, 0
13.6661, 13.0506, 5.25704, 0
13.7685, 13.0857, 5.20541, 0
13.6626, 6.79399, 5.19319, 0
13.2904, 13.2147, 5.42527, 0
13.2908, 7.15947, 5.98178, 0
13.3102, 7.18146, 5.72822, 0
13.2234, 13.3602, 5.2109, 0
13.69, 6.71618, 5.08303, 0
13.6913, 6.71123, 5.61232, 0
13.2979, 7.56622, 5.96888, 0
13.3681, 7.13842, 5.35312, 0
13.3307, 7.20408, 5.47641, 0
13.3442, 13.1389, 5.64718, 0
12.8738, 13.968, 5.92331, 0
13.3167, 7.60098, 5.4363, 0
13.6656, 12.893, 5.73703, 0
11.5622, 12.984, 5.37366, 0
13.4131, 7.15326, 4.96948, 0
13.1267, 13.7871, 5.89003, 0
13.5478, 12.9047, 5.65543, 0
11.9173, 6.76037, 4.96291, 0
11.971, 7.0406, 5.9442, 0
13.611, 6.84627, 5.40889, 0
13.2864, 7.56642, 5.15354, 0
13.3554, 13.1554, 5.02309, 0
13.3515, 13.1515, 5.34172, 0
13.2667, 7.5325, 5.68021, 0
11.33, 13.1992, 5.30405, 0
13.3512, 13.1513, 5.66463, 0
11.9555, 6.94751, 5.61177, 0
13.3463, 13.1464, 5.98853, 0
13.5438, 12.9008, 5.97923, 0
11.537, 12.8623, 4.9793, 0
13.5512, 12.9079, 5.33431, 0
13.3418, 7.10797, 5.09814, 0
13.6086, 6.84508, 5.68167, 0
12.8779, 14.0047, 5.2826, 0
13.3483, 13.1424, 5.00564, 0
13.5741, 12.9274, 5.09726, 0
13.7284, 12.7708, 5.10484, 0
12.8712, 14.0268, 5.61313, 0
13.6054, 6.84348, 5.95727, 0
13.6186, 6.85012, 5.14108, 0
13.403, 7.07549, 5.87222, 0
13.6824, 6.7939, 5.59613, 0
13.631, 6.70387, 5.86622, 0
13.4702, 6.7069, 5.83965, 0
13.4898, 6.70589, 5.3018, 0
13.6565, 6.79069, 5.27925, 0
13.7417, 12.7203, 5.19447, 0
13.6701, 12.7454, 5.73214, 0
13.4, 7.8122, 5.14439, 0
12.2268, 6.55939, 5.11659, 0
13.4111, 7.80572, 5.68936, 0
13.7409, 12.7188, 5.51597, 0
13.2921, 6.94756, 5.76807, 0
13.3137, 6.9812, 4.97182, 0
13.5036, 6.70739, 5.03841, 0
13.3019, 6.96017, 5.50118, 0
12.2486, 6.65443, 5.44187, 0
13.6805, 12.9128, 5.3655, 0
13.0735, 13.7921, 5.56048, 0
13.3907, 7.06317, 5.59087, 0
12.2681, 6.74936, 5.7726, 0
13.3468, 7.79023, 5.94698, 0
13.7193, 13.0582, 5.66708, 0
19.9139, 39.4202, 1.0915, 0
13.6612, 0.796726, 5.04285, 0
13.6564, 0.804955, 5.27963, 0
13.6616, 0.77709, 5.74524, 0
13.5578, 0.743097, 5.94164, 0
13.2974, -4.8669, 5.51856, 0
13.2481, 1.05387, 5.16206, 0
13.3073, 1.09042, 5.43321, 0
13.3628, 0.719971, 5.25939, 0
13.312, 0.939322, 5.55547, 0
13.3244, 0.941785, 5.06986, 0
13.3224, 0.94086, 5.31293, 0
13.4808, -4.90092, 5.0923, 0
13.3087, 0.736786, 5.1561, 0
12.6089, 0.844783, 5.98507, 0
13.4768, -4.89945, 5.60918, 0
12.5674, 0.63115, 5.15273, 0
13.4167, 0.810689, 5.01328, 0
13.4758, -4.8991, 5.34805, 0
13.3599, 0.721248, 5.01416, 0
13.4988, 0.714269, 5.66709, 0
13.3949, 1.1254, 5.01363, 0
13.4154, 0.810612, 5.25718, 0
13.4102, 0.810298, 5.75305, 0
13.3457, -4.85546, 5.79942, 0
12.5767, 0.6998, 5.42309, 0
13.4698, -4.89692, 5.87014, 0
13.2843, 0.738243, 5.89362, 0
12.6228, 0.334709, 5.24837, 0
12.6419, 0.405652, 5.52348, 0
13.3836, 1.13085, 5.27856, 0
13.463, 1.13173, 5.6251, 0
7.03806, -17.2982, 3.46986, 0
6.97186, -17.2611, 2.45867, 0
6.53127, -17.2665, 2.49058, 0
7.08264, -17.2929, 3.21747, 0
6.50156, -17.2393, 2.7057, 0
6.50309, -17.2496, 3.00219, 0
6.50481, -17.3383, 3.46435, 0
6.55634, -17.2655, 2.88656, 0
6.52657, -17.2974, 3.29303, 0
7.52066, -17.3208, 3.98327, 0
6.53533, -17.307, 2.66903, 0
13.762, -17.1447, 3.18331, 0
7.20828, -17.2927, 3.46464, 0
7.18712, -17.2654, 2.51867, 0
13.3378, -17.2329, 3.74595, 0
13.7616, -17.1412, 3.53825, 0
13.392, -17.1966, 3.34616, 0
7.53335, -17.2643, 2.51881, 0
13.3907, -17.2267, 3.70483, 0
13.3845, -17.3363, 3.69614, 0
13.3871, -17.3354, 3.33991, 0
13.3796, -17.3343, 4.05359, 0
13.6508, -17.0865, 4.05126, 0
13.3951, -17.3012, 1.21635, 0
13.0989, -17.3919, 3.35067, 0
13.6844, -17.1076, 2.28355, 0
13.3816, -17.2864, 2.23233, 0
13.3668, -17.2675, 4.81854, 0
13.611, -17.1148, 1.63207, 0
13.6072, -17.1089, 1.98033, 0
13.5895, -17.0742, 2.96104, 0
13.6782, -17.104, 2.63461, 0
13.3845, -17.2875, 2.26286, 0
7.73963, -18.2367, 4.51492, 0
13.8257, -18.297, 2.09778, 0
13.3884, -17.2926, 1.91335, 0
13.7504, -17.0254, 4.70114, 0
13.6976, -17.1159, 1.58423, 0
13.6926, -18.1255, 4.19143, 0
13.0902, -17.4522, 4.06822, 0
13.8706, -18.0444, 3.46426, 0
6.50606, -17.2462, 3.25746, 0
13.6906, -17.1113, 1.93346, 0
7.7489, -18.1869, 4.81586, 0
13.6254, -18.5039, 2.13434, 0
7.1485, -17.2524, 3.11547, 0
13.3389, -17.1019, 4.07506, 0
13.6061, -17.095, 1.21458, 0
13.5918, -17.0771, 2.60959, 0
13.0945, -17.3639, 3.70054, 0
13.3775, -17.2785, 2.96508, 0
7.24388, -17.2359, 3.417, 0
13.5955, -17.0818, 2.25959, 0
7.51659, -17.2057, 3.53209, 0
13.5506, -16.8971, 4.82188, 0
13.3499, -17.2217, 1.93778, 0
13.6475, -18.3779, 2.81779, 0
13.5661, -16.9119, 1.62138, 0
7.44639, -17.2567, 3.46799, 0
13.5718, -17.0519, 4.74091, 0
13.672, -17.1005, 2.9868, 0
13.3818, -17.2839, 2.61354, 0
13.9052, -17.8543, 4.49696, 0
13.5991, -17.0863, 1.91054, 0
