X,Y,Z,I,
13.4772, 13.0102, 3.34545, 0
13.3395, 7.89402, 4.50021, 0
13.5667, 12.7474, 4.47242, 0
13.17, 7.91591, 4.03296, 0
13.3022, 7.5781, 4.74874, 0
13.3043, 7.75307, 4.79418, 0
13.1374, 7.87223, 4.27539, 0
13.6971, 12.778, 2.73901, 0
12.8994, 14.2379, 3.23943, 0
13.5356, 6.7323, 4.61535, 0
13.7175, 12.7868, 2.13589, 0
13.5514, 6.73723, 3.84227, 0
13.4208, 7.07305, 4.89492, 0
13.685, 12.8085, 4.10498, 0
12.8813, 14.1765, 4.77426, 0
12.8532, 14.1806, 2.01533, 0
13.5348, 6.73288, 4.87913, 0
13.7068, 12.8226, 2.87578, 0
12.8575, 14.1476, 3.53446, 0
13.584, 6.74685, 2.09675, 0
13.6788, 12.8043, 4.41649, 0
13.668, 7.05142, 4.82713, 0
13.5744, 6.74392, 2.58879, 0
13.5806, 6.74612, 2.3425, 0
13.5466, 6.73584, 4.09804, 0
13.717, 12.829, 2.26938, 0
13.4446, 13.0087, 3.47673, 0
13.8326, 6.85391, 3.29747, 0
13.5646, 12.9207, 4.07522, 0
13.1788, 8.18113, 3.52601, 0
13.6705, 9.83073, 3.3692, 0
13.5029, 5.02418, 2.7023, 0
13.3387, 7.90478, 3.74739, 0
13.0435, 13.6021, 4.35765, 0
13.2844, 7.58022, 3.99504, 0
13.3487, 7.14832, 4.64776, 0
13.1844, 8.14833, 4.5258, 0
13.587, 12.9419, 2.24355, 0
13.3189, 7.57696, 4.24675, 0
13.3652, 13.1651, 4.39391, 0
13.3652, 7.12047, 3.54685, 0
13.6567, 6.86929, 2.32187, 0
13.369, 7.12249, 3.29524, 0
13.1058, 13.7135, 4.52225, 0
13.4288, 12.9999, 4.71895, 0
13.1928, 8.17729, 4.27842, 0
13.3703, 13.1701, 3.77179, 0
13.3817, 7.12922, 2.30292, 0
13.5796, 12.9349, 2.84847, 0
13.3588, 13.1587, 4.70683, 0
13.3882, 13.1876, 2.24691, 0
13.6348, 6.85823, 3.83108, 0
13.3679, 13.1677, 4.08186, 0
13.1467, 13.9175, 4.73372, 0
14.0106, 12.564, 4.04736, 0
13.5834, 12.9385, 2.54546, 0
13.5699, 9.47551, 2.47594, 0
13.6462, 6.9156, 2.89165, 0
13.3892, 7.59371, 4.50644, 0
13.3563, 7.11572, 4.05503, 0
13.5131, 7.15868, 2.57464, 0
13.3502, 7.11246, 4.57224, 0
13.3846, 7.13078, 2.05782, 0
13.9551, 12.7016, 4.38522, 0
13.1675, 8.17261, 2.28933, 0
13.5801, 12.9916, 2.98876, 0
13.3436, 7.10893, 4.83306, 0
13.361, 7.11824, 3.80008, 0
13.8002, 12.7418, 3.00892, 0
13.3594, 7.91334, 2.50985, 0
12.8577, 13.8144, 4.08823, 0
13.6257, 6.85368, 4.61022, 0
13.6257, 6.85369, 4.34736, 0
13.3886, 13.2508, 2.39065, 0
13.6594, 6.87062, 2.0747, 0
13.3754, 13.1751, 3.46425, 0
13.1732, 8.15426, 3.77126, 0
13.5627, 12.9188, 4.38699, 0
13.4735, 13.0173, 3.96383, 0
13.1897, 8.21117, 3.28167, 0
13.4668, 7.39612, 4.76559, 0
13.3588, 6.83306, 3.74332, 0
13.3497, 7.03471, 4.46643, 0
13.3484, 7.00276, 4.01267, 0
12.8458, 13.8469, 2.26353, 0
13.3475, 7.0175, 4.79513, 0
13.8359, 12.6713, 2.28293, 0
13.9506, 12.7032, 2.59976, 0
13.0899, 13.7204, 3.30097, 0
13.3179, 12.8833, 2.96441, 0
13.3723, 7.90152, 3.99998, 0
13.7939, 12.6393, 4.41703, 0
13.33, 6.95049, 2.49113, 0
13.6935, 6.61953, 3.77965, 0
13.3473, 6.95719, 2.59938, 0
13.6532, 6.60946, 4.28224, 0
13.3469, 7.01808, 4.30361, 0
13.6934, 10.3857, 2.90435, 0
13.8694, 12.6411, 2.74342, 0
13.456, 7.39865, 3.77358, 0
13.4064, 7.39528, 4.26455, 0
13.6741, 6.58779, 2.53087, 0
13.6665, 6.59476, 2.04015, 0
13.6753, 6.58306, 2.77718, 0
13.7235, 12.753, 3.43404, 0
13.6183, 6.88341, 4.94598, 0
14.0699, 12.6125, 2.22275, 0
13.0697, 13.7181, 2.08511, 0
12.8668, 14.1598, 4.15083, 0
13.2077, 11.042, 3.39317, 0
13.3088, 13.0825, 2.11109, 0
13.7957, 12.911, 3.62121, 0
13.0855, 13.9305, 2.28349, 0
13.1477, 13.9531, 2.58679, 0
13.4593, 12.6728, 2.96365, 0
13.3306, 7.91879, 2.26436, 0
13.531, 12.7215, 2.04341, 0
12.8996, 13.8954, 4.40876, 0
12.8656, 13.8761, 3.79065, 0
12.8612, 13.8342, 3.47897, 0
13.0991, 13.6231, 4.05308, 0
13.7889, 13.0567, 4.22054, 0
13.0677, 13.6179, 2.83246, 0
13.7643, 13.0888, 3.70216, 0
13.0762, 13.6389, 2.2259, 0
13.7472, 13.0711, 3.18802, 0
13.5087, 12.7178, 3.8255, 0
13.146, 7.91539, 3.28477, 0
13.6253, 12.7458, 2.64779, 0
13.1447, 7.9152, 2.04951, 0
13.5554, 12.7201, 2.26076, 0
13.6679, 7.06412, 4.19416, 0
13.3069, 7.5909, 2.75876, 0
13.6761, 7.0519, 3.83933, 0
13.3292, 7.59005, 2.26511, 0
13.6788, 7.05761, 3.72867, 0
13.2911, 7.59054, 2.02052, 0
13.6545, 7.05484, 2.40495, 0
13.7405, 7.05564, 2.65421, 0
13.653, 7.05821, 2.91134, 0
13.0686, 13.6484, 3.59881, 0
13.7642, 13.0527, 2.3197, 0
13.3262, 13.4268, 3.86539, 0
13.7692, 13.0697, 3.92249, 0
13.2715, 13.4332, 2.35192, 0
13.8722, 13.0638, 2.89937, 0
13.8208, 13.0891, 2.57176, 0
13.3945, 7.40248, 2.30299, 0
-11.2349, 19.02, 5.53424, 0
-11.5114, 19.0464, 5.41549, 0
-11.4581, 19.0489, 5.65002, 0
-10.9704, 19.4553, 5.93871, 0
-11.0484, 19.4958, 5.42667, 0
-11.1847, 19.31, 5.24105, 0
-11.1767, 19.2544, 5.76914, 0
-11.6012, 19.0866, 5.16408, 0
-11.5987, 19.0775, 5.53444, 0
-11.347, 19.156, 5.58868, 0
-11.3441, 19.1511, 5.96423, 0
-11.5953, 18.9896, 5.96183, 0
-11.1062, 19.3406, 5.53411, 0
-10.933, 19.4366, 5.03317, 0
-11.3535, 19.1671, 5.21764, 0
-11.6049, 19.0055, 5.21556, 0
-11.3472, 19.2386, 5.53762, 0
-10.9265, 19.4108, 5.77485, 0
-10.6988, 19.7098, 5.29237, 0
-11.6026, 19.0016, 5.58854, 0
-10.4921, 19.7015, 5.88062, 0
-10.5099, 19.6727, 5.12902, 0
-10.9298, 19.424, 5.40285, 0
-10.6266, 19.6793, 5.56457, 0
-11.596, 19.0681, 5.90732, 0
-11.7233, 18.721, 5.62296, 0
-11.0665, 19.6172, 5.67879, 0
-11.1027, 19.3336, 5.90947, 0
-12.044, 18.7477, 5.32184, 0
-12.1363, 18.8162, 5.3746, 0
-12.0511, 18.7738, 4.99614, 0
-11.8062, 18.9861, 5.3443, 0
-11.1131, 19.3536, 5.16306, 0
-12.0771, 18.7521, 5.69283, 0
-11.2126, 19.0209, 5.22987, 0
-11.6432, 19.0891, 5.7942, 0
-11.2869, 19.3518, 5.887, 0
-11.6907, 18.731, 5.19525, 0
-11.3239, 19.367, 5.37452, 0
-11.4785, 19.0407, 5.01935, 0
-11.2794, 19.3927, 5.03739, 0
-11.3141, 19.3501, 5.60736, 0
-11.4993, -2.1106, 2.59268, 0
-11.5342, 4.05384, 2.84583, 0
-11.5305, 4.17876, 3.43112, 0
-11.5291, 4.34537, 2.97766, 0
-11.5119, -2.55113, 3.70971, 0
-11.5411, -1.65078, 2.98939, 0
-11.5831, 3.44962, 3.5615, 0
-11.5913, -2.55315, 2.85343, 0
-11.6458, 3.51296, 4.8965, 0
-11.5224, 4.45756, 3.83322, 0
-11.5914, -2.56493, 3.93361, 0
-11.5738, 3.42123, 3.08137, 0
-11.5959, 3.44259, 3.29797, 0
-11.6209, -2.57616, 3.28346, 0
-11.5606, 1.2018, 3.98368, 0
-11.6545, -2.14745, 3.27128, 0
-11.67, -2.12526, 2.53302, 0
-11.5738, 4.09055, 2.34669, 0
-11.5338, 4.06779, 3.9497, 0
-11.5782, -2.37878, 2.52052, 0
-11.6342, -1.98158, 3.75894, 0
-11.6009, 4.11157, 3.77495, 0
-11.5503, 1.06179, 4.6102, 0
-11.5426, 3.58621, 3.18376, 0
-11.5611, 3.44113, 2.75593, 0
-11.5454, -1.83703, 3.71549, 0
-11.5461, 3.59465, 3.60237, 0
-11.551, 1.05723, 3.46493, 0
-11.7213, -1.42537, 4.20339, 0
-11.6165, 4.62151, 4.53969, 0
-11.6486, 3.94524, 4.16142, 0
-11.6384, 3.67747, 4.18039, 0
-11.6659, -1.38466, 4.53816, 0
-11.6315, -1.47424, 4.90578, 0
-11.669, -2.32508, 4.60104, 0
-11.6963, -2.33644, 4.24725, 0
-11.613, 1.05615, 4.83465, 0
-11.9234, 0.812408, 3.85222, 0
-11.85, -1.58302, 3.40748, 0
-11.8511, -2.47702, 3.49424, 0
-11.8647, -2.50466, 3.19453, 0
-11.6454, -1.93849, 3.7877, 0
-11.5987, 3.78734, 3.2259, 0
-11.5173, 3.44958, 3.08436, 0
-11.5537, -1.47881, 2.53283, 0
-11.5285, 3.75407, 2.80437, 0
-11.5414, -2.38632, 2.80409, 0
-11.5816, 4.49478, 3.7805, 0
-11.6584, 3.59729, 3.76111, 0
-11.6761, -1.51742, 3.95988, 0
-11.6188, 4.00895, 3.75574, 0
-11.5933, 3.7772, 2.93542, 0
-11.6062, 4.07467, 2.87211, 0
-11.576, 4.28554, 3.39811, 0
-11.6188, -2.09482, 2.77621, 0
-11.5923, -1.46138, 3.49615, 0
-11.5708, -1.74176, 3.36933, 0
-11.5398, 4.50637, 3.26957, 0
-11.5601, 4.45992, 3.4587, 0
-11.5639, -1.45742, 3.23479, 0
-11.5429, 4.51451, 3.01079, 0
-11.5522, 3.65195, 2.37031, 0
-11.5349, -1.41996, 3.16458, 0
-11.5358, -1.43398, 3.05964, 0
-11.5611, 4.01039, 3.66169, 0
-11.5702, 3.55392, 3.21389, 0
-11.5571, -1.94274, 3.53467, 0
-11.5835, 3.93929, 2.81674, 0
-11.5696, 3.5617, 3.54392, 0
-11.5625, -2.12524, 3.52596, 0
-11.5448, -2.46509, 3.18045, 0
-11.5864, 0.835988, 3.20728, 0
-11.5717, 0.820585, 4.0443, 0
-11.5551, 4.26712, 3.57264, 0
-11.5621, 4.23709, 2.70063, 0
-11.5552, -1.79278, 2.68111, 0
-11.5383, -2.47817, 3.45495, 0
-11.556, 4.49613, 2.83552, 0
-11.5213, -1.54399, 3.72145, 0
-11.5559, 3.62101, 2.75843, 0
-11.5471, -1.50702, 2.8245, 0
-11.5448, -2.48668, 2.91959, 0
-11.8069, -4.49531, 2.67168, 0
-11.4885, 0.574317, 2.56974, 0
-11.4524, 1.71473, 2.33184, 0
-11.6466, -4.35257, 3.25481, 0
-11.5417, 0.325987, 4.48408, 0
-11.5883, 0.812389, 4.06203, 0
-11.5969, 0.812526, 4.67042, 0
-11.5503, 0.808043, 4.37219, 0
-11.4431, 1.38828, 4.52961, 0
-11.449, 1.2277, 4.37758, 0
-11.4592, 1.73599, 3.48378, 0
-11.2926, 1.87576, 3.23714, 0
-11.4373, 1.22666, 4.79282, 0
-11.4367, 1.51256, 2.38742, 0
-11.5511, 4.47392, 3.27195, 0
-11.4093, 1.51127, 3.94926, 0
-11.8623, 0.866027, 3.50652, 0
-11.6155, -4.31708, 4.52918, 0
-11.4289, 0.806064, 3.26567, 0
-11.4219, 0.805569, 3.66026, 0
-11.5187, -4.90184, 2.10506, 0
-11.5825, -1.81254, 2.94686, 0
-11.8279, -4.01983, 3.90144, 0
-11.4099, 0.804722, 4.47422, 0
-11.6523, -4.35857, 3.04791, 0
-11.5361, 0.331759, 4.29145, 0
-11.4131, 0.804949, 4.26744, 0
-11.8138, -4.01842, 3.68324, 0
-11.8721, 1.06531, 3.31057, 0
-11.4045, 0.804342, 4.89583, 0
-11.6222, 4.44539, 4.9302, 0
-11.4392, 1.15454, 4.08169, 0
-11.8699, -4.27789, 2.08323, 0
-11.8737, -4.27234, 4.13228, 0
-11.6208, -2.37881, 3.87058, 0
-11.5303, 4.30251, 3.67799, 0
-11.4819, 3.44641, 3.29888, 0
-11.6062, -1.43717, 2.82527, 0
-11.8558, -4.27986, 2.48207, 0
-11.4938, -4.89123, 3.99301, 0
-11.4431, 1.51284, 2.01048, 0
-11.5553, 4.47896, 3.07772, 0
-11.7144, 0.769405, 2.15579, 0
-11.6019, -2.38103, 3.42121, 0
-11.4479, 0.807404, 2.1176, 0
-11.7772, -4.02923, 2.22262, 0
-11.3651, 0.985227, 2.69464, 0
-11.4417, 1.15479, 3.87825, 0
-11.4521, 1.15584, 3.28077, 0
-11.4444, 0.807159, 2.30576, 0
-11.7802, -4.02695, 2.42656, 0
-11.5298, 0.806068, 2.9461, 0
-11.584, 1.86799, 4.64445, 0
-11.8787, 0.915458, 2.22336, 0
-11.4905, 0.559891, 3.52692, 0
-11.4873, 0.577104, 2.38202, 0
-11.4867, -4.88824, 4.21002, 0
-11.4482, 1.15544, 3.47796, 0
-11.4833, 1.30221, 2.38419, 0
-11.4895, 1.30969, 2.00699, 0
-11.5115, -4.89879, 2.7215, 0
-11.6661, 0.378683, 2.4978, 0
-11.4211, -4.87763, 3.38004, 0
-11.9226, 0.810091, 3.16826, 0
-11.6197, -4.32273, 4.31198, 0
-11.4702, 0.680683, 4.83512, 0
-11.8705, 0.802643, 2.82415, 0
-11.4817, 0.679915, 4.20893, 0
-11.6322, -4.33933, 3.67178, 0
-11.4356, 0.963524, 4.03787, 0
-11.4128, 1.51143, 3.74807, 0
-11.4636, 3.92953, 3.94124, 0
-11.4183, 1.51155, 3.35096, 0
-11.5827, 4.58639, 4.14375, 0
-11.1881, 0.855066, 2.2722, 0
-11.4843, 1.71723, 3.09618, 0
-11.4277, 1.68079, 3.84547, 0
-11.4388, 1.69141, 4.64005, 0
-11.5047, 1.72324, 4.0653, 0
-11.4254, 1.68198, 4.83725, 0
-11.414, 2.02936, 3.35532, 0
-11.551, -4.69701, 4.47543, 0
-11.4597, 2.04617, 4.13238, 0
-11.3901, 2.00378, 4.8989, 0
-11.4666, -4.83153, 2.92637, 0
-11.6522, 0.391162, 2.13333, 0
-11.6782, 0.37255, 2.68197, 0
-11.39, -4.87753, 3.57566, 0
-11.5149, -4.90024, 2.51505, 0
-11.4843, -4.88719, 4.65514, 0
-11.6597, 0.363226, 3.98546, 0
-11.5883, 0.378166, 4.54523, 0
-11.5795, 0.391513, 4.15775, 0
-11.6504, -1.46101, 3.02493, 0
-11.8896, -4.2706, 3.71535, 0
-11.5806, 0.727848, 4.177, 0
-11.6331, 0.750759, 3.62144, 0
-11.8805, -4.27102, 3.92275, 0
-11.5669, 0.720377, 4.36508, 0
-11.5954, 0.735349, 3.9903, 0
-11.8849, 0.823573, 4.8733, 0
-11.5721, 1.87065, 3.29889, 0
-11.4834, -4.88683, 4.43054, 0
-11.591, 0.313351, 3.73684, 0
-11.5538, 0.314289, 4.87533, 0
-11.6536, 1.39701, 3.55346, 0
-11.8605, 0.99662, 2.43054, 0
-11.3921, 0.702526, 3.90097, 0
-11.6289, -4.33414, 3.88365, 0
-11.3195, 0.72368, 4.45081, 0
-11.5616, 3.49357, 2.893, 0
-11.582, -4.88206, 3.77666, 0
-11.4169, 1.1212, 2.75193, 0
-11.4308, 1.13346, 2.93285, 0
-11.652, -4.71281, 2.48961, 0
-11.5605, -4.69837, 4.2765, 0
-11.6307, -4.7092, 2.88813, 0
-11.6291, -4.68736, 4.8886, 0
-11.4301, 1.37808, 4.90456, 0
-11.396, 1.36679, 4.33805, 0
-11.4789, 1.37094, 2.86401, 0
-11.4591, 3.87341, 2.94574, 0
-11.569, 1.09883, 4.3324, 0
-11.576, 1.08973, 3.38613, 0
-11.6657, 1.06872, 2.8135, 0
-11.6294, 1.07515, 3.00587, 0
-11.6787, 1.06956, 2.04199, 0
-11.6272, 1.08473, 2.43212, 0
-11.6124, 1.4542, 2.59957, 0
-11.6085, 1.43293, 2.21683, 0
-11.6105, 1.44359, 2.40844, 0
-11.5456, 4.68528, 3.35098, 0
-11.5088, 4.75536, 3.95424, 0
-11.6924, -4.77239, 3.73644, 0
-11.6339, -4.78083, 2.71599, 0
-11.6316, -2.36047, 3.65508, 0
-11.6365, -4.80317, 3.28951, 0
-11.6176, -2.39127, 2.8345, 0
-11.6132, -2.388, 3.03042, 0
-11.6271, -4.61817, 2.47489, 0
-11.5472, 0.320152, 4.67854, 0
-11.6688, -4.51096, 4.33858, 0
-11.7925, -4.49956, 2.04173, 0
-11.5301, 3.50247, 3.82902, 0
-11.6386, -1.14499, 3.30615, 0
-11.5401, 1.54214, 2.81246, 0
-11.5066, 3.81948, 3.32848, 0
-11.493, 3.8421, 3.53171, 0
-11.379, 3.55425, 2.65686, 0
-11.3867, 3.54199, 2.8521, 0
-11.3816, 4.52258, 2.69425, 0
-11.5468, 4.46886, 3.46578, 0
-11.6073, 0.866885, 2.32198, 0
-11.6072, 0.863053, 2.68427, 0
-11.6128, 0.859759, 3.04434, 0
-11.5819, -2.00073, 2.93535, 0
-11.4862, 15.8123, 3.82655, 0
-11.5599, 15.4006, 3.09566, 0
-11.5539, 15.3979, 3.29854, 0
-11.5438, 15.8321, 2.90833, 0
-11.4435, 15.4399, 3.55915, 0
-11.5108, 16.4575, 4.66581, 0
-11.5411, 15.4691, 4.34585, 0
-11.52, 15.478, 4.71902, 0
-11.4999, 15.4476, 2.92632, 0
-11.495, 15.4437, 3.40868, 0
-11.4974, 16.2803, 3.5496, 0
-11.4226, 19.0453, 4.55974, 0
-11.4631, 19.0245, 2.68348, 0
-11.4168, 19.033, 3.32201, 0
-11.4342, 19.0274, 2.12301, 0
-11.4875, 19.0492, 4.67518, 0
-11.853, 19.051, 3.19798, 0
-11.8522, 19.0019, 2.84129, 0
-11.841, 18.941, 3.54972, 0
-11.5457, 15.5815, 3.05668, 0
-12.1566, 18.8408, 2.15513, 0
-11.5211, 15.7414, 3.76076, 0
-11.539, 15.6175, 3.5126, 0
-12.1129, 18.819, 2.50684, 0
-10.6844, 19.7908, 2.78405, 0
-10.6924, 19.8133, 3.14219, 0
-11.0399, 19.6595, 2.07808, 0
-11.6015, 15.8364, 4.15968, 0
-11.2482, 19.3321, 3.60247, 0
-10.5954, 19.7236, 2.69148, 0
-11.5917, 16.1415, 2.08186, 0
-11.606, 15.9559, 3.11929, 0
-11.4494, 19.0223, 3.71879, 0
-11.8679, 19.0698, 2.13174, 0
-10.5004, 19.7262, 3.31394, 0
-11.5237, 15.4196, 2.77614, 0
-10.6185, 19.6901, 4.8366, 0
-10.61, 19.7, 4.11599, 0
-11.5836, 16.3052, 3.68163, 0
-11.5487, 15.7121, 3.17954, 0
-10.535, 19.8113, 4.42085, 0
-11.5608, 16.2326, 3.9973, 0
-10.7287, 19.6934, 2.53199, 0
-11.5598, 15.8616, 3.63581, 0
-11.6092, 19.0124, 4.47703, 0
-11.5443, 15.7543, 3.65473, 0
-11.6071, 19.0091, 4.84511, 0
-10.7493, 19.6164, 2.16623, 0
-11.552, 15.7537, 3.31446, 0
-6.00266, 19.1687, 3.60263, 0
-11.6112, 19.0157, 4.11115, 0
-11.285, 15.7819, 3.31875, 0
-10.8702, 19.5541, 3.70451, 0
-10.8878, 19.5499, 2.26266, 0
-10.3592, 19.8674, 3.76763, 0
-11.5622, 16.3451, 3.20472, 0
-10.504, 19.6881, 3.6693, 0
-11.8773, 19.1206, 4.01481, 0
-11.5619, 19.0374, 3.39388, 0
-10.916, 19.4654, 4.50873, 0
-10.9263, 19.5343, 3.42617, 0
-10.9153, 19.4472, 4.87375, 0
-10.9317, 19.5608, 3.0682, 0
-10.9447, 19.6009, 2.7128, 0
-11.9196, 16.1718, 3.13668, 0
-10.7092, 19.692, 3.61266, 0
-11.2265, 19.041, 3.92373, 0
-11.6265, 19.1671, 2.27233, 0
-5.45401, 19.2122, 3.35834, 0
-10.9728, 19.5682, 3.85058, 0
-12.1406, 18.8203, 4.29146, 0
-11.6001, 15.6145, 3.65092, 0
-10.6686, 19.6828, 4.13382, 0
-12.0625, 18.789, 3.92285, 0
-11.5757, 15.6101, 3.35916, 0
-11.3577, 19.174, 4.47881, 0
-10.6995, 19.6826, 3.84553, 0
-11.6045, 15.5014, 2.93854, 0
-11.6242, 19.037, 2.66693, 0
-10.5168, 19.735, 2.23852, 0
-11.3557, 19.1706, 4.84704, 0
-10.6987, 19.6952, 4.56497, 0
-11.2309, 19.3558, 2.69614, 0
-11.6223, 19.0339, 3.02612, 0
-11.1424, 19.2783, 3.33183, 0
-11.3658, 19.2995, 3.34796, 0
-5.40761, 19.3704, 4.38814, 0
-11.1263, 19.3804, 3.69444, 0
-10.6988, 19.7026, 4.92763, 0
-12.0912, 18.7898, 4.6426, 0
-11.5826, 15.5856, 3.83832, 0
-5.34414, 19.3521, 4.27422, 0
-11.1703, 19.2638, 4.65373, 0
-11.376, 19.205, 2.31027, 0
-5.2068, 19.2499, 3.30483, 0
-10.939, 19.4614, 4.30019, 0
-11.6035, 19.0954, 4.7961, 0
-11.5292, 16.2454, 3.8644, 0
-11.0676, 19.3379, 4.02841, 0
-5.44068, 19.3714, 3.1874, 0
-11.1437, 19.4145, 2.25346, 0
-11.628, 19.0432, 2.30936, 0
-5.07734, 19.3387, 3.51677, 0
-11.372, 19.3195, 2.63115, 0
-11.1669, 19.3118, 4.50012, 0
-5.33094, 19.3846, 3.78613, 0
-11.1351, 19.3977, 2.97155, 0
-11.3596, 19.1773, 4.11278, 0
-5.23483, 19.1868, 2.47459, 0
-11.1185, 19.3648, 4.42411, 0
-11.6059, 19.1042, 4.43031, 0
-11.1158, 19.3593, 4.79245, 0
-5.17392, 19.2086, 2.62869, 0
-10.9966, 19.6057, 2.1466, 0
-11.5925, 15.6563, 4.14244, 0
-11.2311, 19.038, 4.06725, 0
-11.6241, 19.1584, 2.62915, 0
-5.44929, 19.3, 3.65372, 0
-11.1539, 19.2758, 2.2484, 0
-12.1462, 18.8269, 3.22006, 0
-11.5645, 15.6327, 2.81847, 0
-11.1296, 19.3871, 3.33195, 0
-11.121, 19.3703, 4.05787, 0
-5.20733, 19.2544, 2.98089, 0
-11.5885, 15.5034, 2.54318, 0
-10.946, 19.4809, 3.93798, 0
-11.8284, 18.9684, 3.90602, 0
-6.03416, 19.1732, 3.2858, 0
-11.8775, 19.0495, 2.05557, 0
-11.574, 19.0678, 3.6479, 0
-11.5482, 16.2109, 2.62998, 0
-11.5605, 19.176, 4.00177, 0
-11.307, 16.2647, 2.95029, 0
-11.287, 16.5542, 3.56688, 0
-11.3049, 16.5957, 3.24045, 0
-11.3329, 19.2257, 3.72056, 0
-5.41787, 19.3657, 3.68212, 0
-11.1185, 19.3011, 4.05025, 0
-11.2151, 16.7502, 3.42509, 0
-11.1994, 16.7595, 3.74831, 0
-11.2553, 19.356, 3.32488, 0
-11.2817, 19.362, 2.96575, 0
-5.06591, 19.3531, 2.8984, 0
-11.3319, 19.3694, 2.24489, 0
-11.3069, 19.3659, 2.60581, 0
-5.03705, 19.3813, 3.7285, 0
-11.1951, 19.3465, 2.31386, 0
-11.3745, 16.6113, 3.79561, 0
-11.3905, 16.6637, 3.47174, 0
-5.34615, 19.2379, 2.33529, 0
-11.3991, 19.2713, 3.89013, 0
-11.2591, 16.7604, 3.39752, 0
-5.35429, 19.2362, 2.20312, 0
-11.4715, 16.034, 2.76926, 0
-11.62, 19.1468, 2.98657, 0
-5.32019, 19.2862, 3.76319, 0
-11.5516, 19.146, 4.06291, 0
-11.5309, 16.1267, 3.1565, 0
-11.2103, 19.2702, 2.67296, 0
-11.2132, 19.3194, 3.0358, 0
-11.2592, 19.3839, 4.11889, 0
-11.5485, 16.4552, 2.93793, 0
-5.45522, 19.2164, 3.03401, 0
-11.6029, 19.1108, 2.18162, 0
-11.5878, 16.4826, 3.28119, 0
-11.5667, 16.4719, 2.95616, 0
-5.47195, 19.2853, 2.83719, 0
-11.4759, 16.6548, 3.77977, 0
-11.3431, 19.3547, 4.75275, 0
-11.5573, 16.4582, 3.58819, 0
-5.05213, 19.3816, 3.40826, 0
-11.3996, 19.3618, 2.39597, 0
-11.2931, 19.3766, 4.633, 0
-11.3786, 19.3508, 3.69549, 0
-11.3253, 19.3887, 3.83819, 0
-5.71024, 19.1932, 3.49947, 0
-11.9088, 19.1406, 2.82386, 0
-11.5132, 19.0352, 4.20786, 0
-11.468, 19.0171, 2.52022, 0
-11.3704, 19.1956, 3.02731, 0
-5.02627, 19.2871, 3.7681, 0
-11.6738, 16.4568, 3.75022, 0
-11.5213, 16.4518, 4.4788, 0
-11.6241, 15.9134, 3.87714, 0
-11.5644, 16.5559, 2.77915, 0
-11.5216, 15.8089, 4.08063, 0
-11.5286, 16.4686, 4.12792, 0
-11.5838, 15.7971, 2.72869, 0
-11.5591, 16.5873, 4.20774, 0
-11.5342, 16.4551, 2.59706, 0
-11.1987, 19.0253, 4.93253, 0
-11.6178, 19.1384, 3.34568, 0
-5.48374, 19.3355, 4.32991, 0
-11.4924, 19.037, 2.99274, 0
-11.5851, 16.4191, 2.0945, 0
-11.5089, 15.459, 2.80306, 0
-5.71054, 19.1996, 3.17383, 0
-11.4628, 19.0446, 3.80573, 0
-11.551, 13.3577, 5.85855, 0
-11.5514, 13.36, 5.02709, 0
-11.5547, 13.3525, 5.74483, 0
-11.5509, 13.3567, 5.32695, 0
-11.245, 7.00066, 5.33338, 0
-11.2328, 7.00539, 5.06936, 0
-11.2229, 7.03254, 5.55961, 0
-11.2283, 7.01226, 5.90222, 0
-11.2323, 12.993, 5.2218, 0
-11.2369, 13.0222, 5.97345, 0
-11.2451, 12.9643, 5.50291, 0
-11.2296, 12.9744, 5.68425, 0
-11.5516, 10.4185, 5.0362, 0
-11.5621, 9.45907, 5.03563, 0
-11.3073, 13.3735, 5.38172, 0
-11.6944, 13.0685, 5.53972, 0
-11.6349, 13.0979, 5.8277, 0
-10.9718, 7.79192, 5.3947, 0
-11.6346, 12.9332, 5.86678, 0
-10.9032, 13.6596, 5.3181, 0
-10.8744, 13.576, 5.89338, 0
-10.8822, 13.6096, 5.6018, 0
-10.9278, 7.72107, 5.12346, 0
-11.6407, 12.94, 5.26106, 0
-11.125, 7.39921, 5.79822, 0
-11.1549, 7.31835, 4.9693, 0
-11.155, 7.30512, 5.4492, 0
-11.1268, 7.67008, 5.1492, 0
-10.9426, 7.5368, 5.80653, 0
-11.0394, 13.493, 5.69626, 0
-11.0263, 13.4734, 5.99537, 0
-11.0178, 13.3794, 5.36047, 0
-11.0182, 13.3834, 5.06217, 0
-10.958, 7.53335, 5.08465, 0
-11.8586, 13.032, 5.82988, 0
-10.8855, 13.5691, 4.9959, 0
-11.166, 13.2932, 5.80005, 0
-11.1669, 13.2946, 5.4958, 0
-11.6406, 12.9399, 5.56386, 0
-11.3258, 13.1111, 5.23689, 0
-11.1919, 7.26408, 5.5927, 0
-10.9947, 7.67867, 5.5655, 0
-11.4069, 13.0412, 5.18293, 0
-11.5592, 7.07296, 5.3986, 0
-11.3209, 13.1053, 5.53594, 0
-11.759, 7.0537, 5.89875, 0
-11.6455, 12.9454, 4.96312, 0
-11.3151, 13.0987, 5.83742, 0
-11.1447, 7.50698, 5.49549, 0
-11.1517, 7.28927, 5.93911, 0
-11.7508, 7.05148, 5.11447, 0
-11.4076, 13.0417, 5.48434, 0
-11.7239, 7.06486, 5.62467, 0
-11.3139, 7.32393, 5.12884, 0
-11.3412, 7.07245, 5.40162, 0
-11.8817, 12.7449, 5.00948, 0
-11.8979, 12.7131, 5.30082, 0
-11.8708, 12.6946, 5.86904, 0
-11.1724, 13.3015, 5.19665, 0
-11.4026, 13.0357, 5.78591, 0
-10.708, 13.6962, 5.04466, 0
-10.7281, 13.7608, 5.66231, 0
-10.8729, 13.5534, 5.518, 0
-11.8388, 12.7214, 5.28508, 0
-11.3694, 7.4506, 5.63503, 0
-11.3653, 7.45202, 5.4011, 0
-11.8074, 12.7101, 5.56484, 0
-11.361, 7.45318, 5.16946, 0
-11.5726, 6.68653, 5.24027, 0
-11.5262, 6.67886, 5.91251, 0
-11.5413, 6.68118, 5.68663, 0
-11.3866, 6.77785, 4.98345, 0
-11.3663, 6.78567, 5.65354, 0
-11.5995, 6.62895, 5.83115, 0
-11.586, 6.63376, 5.37679, 0
-11.4081, 6.73601, 5.33842, 0
-11.4095, 6.94548, 5.35127, 0
-11.5656, 6.93379, 5.62855, 0
-11.5537, 6.88462, 5.1783, 0
-11.4094, 13.355, 5.14532, 0
-11.5938, 6.80724, 5.46659, 0
-11.3371, 7.08783, 5.84882, 0
-11.6621, 13.053, 4.98674, 0
-11.3651, 13.36, 5.70443, 0
-11.4665, 13.351, 5.86379, 0
13.6245, 3.37928, 3.83898, 0
13.6347, 4.369, 3.82467, 0
13.6553, 1.05361, 3.97471, 0
13.6854, 1.05609, 4.08262, 0
13.6633, 4.35501, 3.12507, 0
13.6645, 1.06215, 4.36826, 0
13.6577, 1.07455, 3.65689, 0
13.6512, -2.63801, 3.02141, 0
13.8049, 1.05159, 3.33244, 0
13.5488, -2.73852, 4.1585, 0
13.5642, -2.25852, 4.15944, 0
13.2941, 0.740301, 3.952, 0
13.226, 0.581099, 3.02263, 0
13.7047, 4.22225, 3.84227, 0
13.5672, -2.64214, 3.80606, 0
13.6537, 3.93978, 3.49413, 0
13.6543, -2.63133, 3.67491, 0
13.6616, -2.64613, 3.33307, 0
13.6591, 3.86517, 2.5068, 0
13.6604, 3.72639, 2.47046, 0
13.6607, 3.2847, 2.38577, 0
13.6555, 3.309, 2.7967, 0
13.6554, 4.18721, 2.30701, 0
13.6502, 3.60523, 2.66694, 0
13.6626, 4.23155, 2.76577, 0
13.6604, 4.22151, 3.56883, 0
13.6552, 4.35613, 3.15132, 0
13.5961, 3.5745, 2.11711, 0
13.6029, 3.99703, 2.101, 0
13.5594, 3.80461, 2.53417, 0
13.6512, -1.80241, 3.02941, 0
13.6043, 3.35512, 2.02086, 0
13.5964, 4.33022, 2.20069, 0
13.3452, 1.06075, 4.72647, 0
13.6059, -1.66448, 3.77564, 0
13.4601, 0.468776, 3.044, 0
13.5767, 0.751368, 2.77955, 0
13.5156, 1.76864, 4.22768, 0
13.5103, 1.76317, 4.00779, 0
13.5644, 3.86946, 2.86458, 0
13.6341, 4.04854, 2.62241, 0
13.4731, 0.243249, 3.92368, 0
13.4912, 0.228564, 4.37823, 0
13.3482, 1.05991, 4.49033, 0
13.606, -1.84419, 3.49246, 0
13.421, 0.4269, 2.38176, 0
13.3901, 0.396514, 3.25156, 0
13.3816, 0.432971, 3.47217, 0
13.3059, 0.748831, 2.84525, 0
13.3517, 0.746306, 2.62733, 0
13.3216, 0.723316, 4.63746, 0
13.6103, -2.49163, 3.49697, 0
13.5622, -2.26377, 3.38809, 0
13.5323, 1.78048, 4.67121, 0
13.4065, 0.934103, 3.42382, 0
13.5907, -2.54342, 3.81738, 0
13.6554, 4.39892, 2.75766, 0
13.4359, -4.92951, 3.65437, 0
13.5418, 3.54189, 2.49142, 0
13.6543, 0.729605, 4.04158, 0
13.316, 0.893897, 2.28172, 0
13.6553, 3.52423, 3.45917, 0
13.4137, 0.419334, 2.59865, 0
13.6116, 4.31366, 2.34488, 0
13.5198, 0.257699, 2.1627, 0
13.5972, 4.36131, 2.03277, 0
13.3765, 0.719766, 4.83695, 0
13.4601, 0.813317, 2.48818, 0
13.7073, -2.5447, 3.39055, 0
13.4242, 0.811145, 4.77444, 0
13.5006, -4.90812, 3.84912, 0
13.5637, -2.5607, 3.48251, 0
13.4989, -4.90749, 4.09395, 0
13.439, 0.812038, 3.83748, 0
13.424, 0.811135, 4.53543, 0
13.4148, 1.12707, 3.60714, 0
13.4347, 0.81178, 4.06824, 0
13.3954, 1.12544, 4.77227, 0
13.6904, -1.72578, 3.34755, 0
13.5984, 3.34291, 2.39822, 0
13.6121, -1.65144, 2.98754, 0
13.3171, 0.888597, 4.56369, 0
13.602, -2.20408, 3.45808, 0
13.4645, 0.813579, 2.04878, 0
13.4487, 0.716307, 4.36782, 0
13.4065, 1.12638, 4.06657, 0
13.332, 0.887969, 3.86829, 0
13.6175, -2.11734, 2.88596, 0
13.3498, 0.401769, 4.3561, 0
13.9751, 1.02501, 2.71237, 0
13.4589, 0.715791, 3.90246, 0
13.6806, -2.20423, 4.06654, 0
13.6525, 0.748546, 3.35391, 0
13.6613, 0.739234, 4.85386, 0
13.3389, 0.887368, 3.41387, 0
13.5377, -2.21111, 2.52859, 0
13.4577, 0.715194, 3.67107, 0
13.6305, 3.61431, 3.90545, 0
13.4182, 1.12736, 3.38001, 0
13.6523, 0.725029, 4.40544, 0
13.3444, 0.886688, 2.96601, 0
13.5281, -2.22792, 2.05119, 0
13.3212, 0.893348, 2.0643, 0
13.6554, 0.74445, 3.56778, 0
13.4109, 1.12675, 3.83596, 0
13.3357, 0.887682, 3.64022, 0
13.602, -2.22247, 2.63155, 0
13.4351, 1.12878, 2.26719, 0
13.4669, 0.715168, 3.44435, 0
13.4405, 1.12923, 2.0486, 0
13.4427, 0.812261, 3.60852, 0
13.5186, -4.91466, 2.65416, 0
13.5228, -4.91618, 2.41958, 0
13.4849, -4.90241, 4.83891, 0
13.5093, -2.74975, 2.49279, 0
13.3308, 0.429501, 4.80641, 0
13.4883, -4.90366, 4.58785, 0
13.5336, -2.69635, 2.23691, 0
13.5238, -4.91654, 2.18558, 0
13.6935, 0.742744, 3.07505, 0
13.3989, 1.15576, 4.55602, 0
13.6152, -1.65144, 2.80526, 0
13.3278, 0.888223, 4.09818, 0
13.5671, -1.97607, 3.38228, 0
13.4932, -1.74057, 3.26332, 0
13.3174, 0.889172, 4.80195, 0
13.7107, -1.5852, 3.45531, 0
13.6324, 3.54375, 2.63332, 0
13.6881, 0.733606, 4.20939, 0
13.3469, 0.886336, 2.7443, 0
13.4886, 0.713266, 2.10664, 0
13.6932, 0.953668, 4.11923, 0
13.6082, -1.60807, 3.47957, 0
13.4858, 0.713624, 2.3266, 0
13.6981, 3.28484, 3.88419, 0
13.6196, -1.61064, 3.16128, 0
13.6583, 3.22202, 3.2772, 0
13.605, -1.62277, 2.7822, 0
13.6509, 3.31148, 3.67295, 0
13.6212, -1.57137, 3.00977, 0
13.6537, 0.941634, 4.56167, 0
13.5678, -1.54298, 3.75013, 0
13.4351, 1.57603, 2.0578, 0
13.594, 1.18974, 2.68494, 0
13.4574, 0.973696, 3.12714, 0
13.4821, -3.14563, 2.49782, 0
13.6735, 1.30175, 2.59755, 0
13.6351, 4.2989, 3.51575, 0
13.6516, 1.28751, 2.38428, 0
13.6452, 4.3221, 3.23218, 0
13.6097, 1.27353, 3.03098, 0
13.6601, 1.33016, 4.74829, 0
13.6702, 0.92973, 2.40859, 0
13.6169, 3.88991, 3.39344, 0
13.7032, 0.931295, 3.91148, 0
13.6415, 4.17308, 2.8375, 0
13.5181, -2.75223, 3.18952, 0
13.5172, -2.76107, 2.9752, 0
13.6555, 3.27708, 2.99539, 0
13.5536, -1.64736, 2.53405, 0
13.5218, -2.66284, 2.75356, 0
13.7427, 4.44535, 3.60186, 0
13.7467, 3.95133, 3.38209, 0
13.7456, 3.46915, 3.3859, 0
13.6548, 1.11317, 2.93442, 0
13.6523, 0.757096, 2.9249, 0
13.7286, 0.730449, 2.26589, 0
13.7492, -1.64633, 4.08062, 0
13.6324, 3.45397, 3.17086, 0
13.7206, 0.734438, 2.04823, 0
13.6419, 3.49157, 3.06651, 0
13.6351, 4.41118, 3.31375, 0
13.6375, 4.40979, 2.84723, 0
13.6359, 4.41036, 3.08067, 0
13.6232, 3.87911, 3.50723, 0
13.7413, 0.803998, 2.62602, 0
13.602, -2.5464, 3.05367, 0
13.6738, -1.70466, 3.79731, 0
13.6348, 3.4469, 2.92356, 0
13.6408, 3.53709, 3.454, 0
13.6714, 0.745709, 2.77609, 0
13.6669, 0.764845, 3.22427, 0
13.7048, 0.951027, 2.13466, 0
13.6168, -2.50336, 2.77879, 0
13.6622, 0.770854, 3.54239, 0
13.6836, 0.788534, 4.68229, 0
13.6143, 4.44535, 3.53706, 0
13.6794, -1.75896, 3.45401, 0
13.6301, 3.41644, 2.68141, 0
13.5163, -4.91903, 3.05422, 0
13.6248, 4.3274, 2.99233, 0
13.3776, 0.726168, 4.33117, 0
13.6691, 3.78582, 3.03481, 0
13.664, 3.52472, 3.04213, 0
13.6166, 3.44726, 3.36383, 0
13.6546, 4.21159, 3.17734, 0
13.5363, -2.37676, 2.54225, 0
13.6142, 3.4217, 3.54132, 0
13.5829, 1.78493, 2.48173, 0
13.3302, 0.738859, 4.18158, 0
13.4781, 0.235876, 4.14931, 0
13.5146, -1.74333, 2.20221, 0
13.5285, -1.70221, 2.44981, 0
13.6516, 4.19251, 2.93563, 0
13.5786, 4.39083, 2.43803, 0
13.6391, 19.3581, 5.24033, 0
13.9448, 18.7363, 5.28591, 0
12.5896, 20.1302, 5.58968, 0
12.5916, 20.0565, 5.96249, 0
13.9739, 18.886, 5.70009, 0
13.6285, 19.0115, 5.47866, 0
14.0999, 18.7335, 5.66847, 0
13.6316, 19.0158, 5.0897, 0
13.9872, 18.6889, 5.25324, 0
14.0529, 18.6337, 5.04881, 0
13.7945, 18.8096, 5.64489, 0
13.8216, 18.9067, 5.10871, 0
13.8137, 18.8983, 5.49718, 0
13.6335, 19.0444, 5.69197, 0
12.9518, 19.6198, 5.50888, 0
13.8064, 18.8909, 5.88846, 0
13.6252, 19.0069, 5.87023, 0
12.8667, 19.9254, 5.16107, 0
12.681, 19.9261, 5.92011, 0
12.657, 19.846, 5.51662, 0
13.364, 19.1806, 5.08538, 0
13.7186, 19.1114, 5.13028, 0
14.0106, 18.8482, 5.15598, 0
14.0584, 18.8669, 5.90904, 0
13.3601, 19.1751, 5.47366, 0
13.736, 19.1212, 5.45586, 0
13.7299, 19.0534, 5.8292, 0
12.658, 19.8041, 5.12322, 0
12.8529, 19.6324, 5.85193, 0
13.4715, 19.3518, 5.59472, 0
12.8037, 19.8948, 5.54133, 0
13.3653, 19.2083, 5.68979, 0
-11.5093, 10.3377, 3.77222, 0
-11.5119, 10.4002, 2.52797, 0
-11.4938, 10.1964, 3.2889, 0
-11.5109, 10.1447, 2.52966, 0
-11.5095, 9.48782, 2.54511, 0
-11.514, 10.1713, 2.69345, 0
-11.563, 9.43718, 3.23915, 0
-11.5146, 9.91776, 2.84868, 0
-11.5515, 13.3579, 4.73008, 0
-11.5545, 13.3575, 4.52271, 0
-11.5735, 13.3525, 4.06304, 0
-11.5749, 13.3524, 3.87055, 0
-11.4943, 9.4418, 2.77833, 0
-11.4556, 9.44595, 3.182, 0
-11.5856, 9.42421, 2.90334, 0
-11.5084, 9.40561, 3.77638, 0
-11.5111, 9.87004, 2.52858, 0
-11.5929, 10.4262, 4.42737, 0
-11.5656, 10.4209, 4.83349, 0
-11.5996, 9.90863, 4.41784, 0
-11.5764, 9.4633, 4.82645, 0
-11.5912, 9.46731, 4.61712, 0
-11.4983, 9.44688, 3.74244, 0
-11.522, 9.76452, 2.87253, 0
-11.5919, 13.369, 3.58397, 0
-11.5452, 9.44622, 2.98477, 0
-11.5185, 9.924, 3.84521, 0
-11.5447, 9.51655, 3.75575, 0
-11.5021, 13.3818, 4.65929, 0
-11.622, 10.3862, 2.37158, 0
-11.618, 10.3842, 2.2131, 0
-11.5383, 10.077, 3.10107, 0
-11.2841, 13.365, 4.57748, 0
-11.5196, 10.5733, 3.76078, 0
-11.3978, 13.3508, 3.48567, 0
-11.4124, 13.3628, 3.32152, 0
-11.6048, 10.1471, 3.80659, 0
-11.5477, 9.55868, 3.13352, 0
-11.3433, 13.3613, 4.22026, 0
-11.5816, 9.76278, 4.16623, 0
-11.4264, 7.3547, 3.45965, 0
-11.5391, 9.67888, 3.65466, 0
-11.3838, 13.3544, 4.03864, 0
-11.6065, 10.2988, 3.31163, 0
-11.5884, 10.5649, 4.16261, 0
-11.5831, 9.65346, 4.22058, 0
-11.6032, 9.75774, 3.47504, 0
-11.8922, 13.0659, 4.81791, 0
-11.9205, 6.91947, 2.07241, 0
-11.761, 7.05081, 3.70044, 0
-11.5956, 9.76279, 3.32483, 0
-11.6015, 10.3317, 3.11776, 0
-11.6399, 10.4618, 3.9402, 0
-11.6317, 9.57614, 3.96341, 0
-11.5932, 9.97724, 3.76158, 0
-11.7789, 7.06498, 4.42226, 0
-11.7517, 7.06705, 4.93121, 0
-11.7624, 7.05344, 3.87138, 0
-11.7005, 7.0732, 4.10697, 0
-11.5774, 9.63729, 3.41393, 0
-11.5799, 10.2083, 3.61714, 0
-11.6686, 6.9526, 3.20029, 0
-11.1473, 13.0033, 3.71095, 0
-11.5669, 10.4414, 3.4522, 0
-11.5591, 9.56885, 3.62534, 0
-11.5628, 10.4769, 3.03188, 0
-11.5644, 10.4381, 2.78859, 0
-11.5487, 10.2417, 3.49789, 0
-11.5592, 9.51127, 2.81815, 0
-11.5872, 10.4257, 3.29714, 0
-11.5975, 9.50507, 3.01454, 0
-11.4009, 10.4937, 2.9494, 0
-11.3931, 10.5286, 2.69856, 0
-11.3902, 9.57402, 2.66553, 0
-11.354, 10.7672, 3.45818, 0
-11.3674, 9.78031, 3.6162, 0
-11.3884, 9.77116, 3.36724, 0
-11.2749, 13.4177, 3.12955, 0
-11.3028, 13.3789, 2.84454, 0
-11.53, 9.6945, 3.34949, 0
-11.4598, 7.41463, 2.88874, 0
-11.2223, 6.88907, 2.51639, 0
-11.236, 7.03813, 4.89964, 0
-11.6925, 7.10269, 3.32546, 0
-11.6067, 7.07131, 2.66228, 0
-11.6899, 7.07277, 2.4324, 0
-11.2365, 7.02731, 3.25275, 0
-11.2088, 7.03689, 2.60526, 0
-11.3335, 13.2582, 3.57053, 0
-11.3764, 10.6995, 3.42654, 0
-11.3023, 7.47489, 3.37671, 0
-11.2483, 7.03435, 3.68451, 0
-11.5562, 7.15639, 2.07158, 0
-11.2428, 7.04234, 2.97883, 0
-11.2452, 7.0189, 4.60725, 0
-11.5689, 7.17344, 2.95886, 0
-11.6534, 12.9542, 4.37379, 0
-11.5802, 13.0614, 4.17589, 0
-11.5516, 9.44394, 2.71418, 0
-10.7204, 13.7381, 4.76152, 0
-11.6693, 6.7204, 2.64172, 0
-11.2272, 7.54819, 2.19234, 0
-11.3288, 13.1996, 4.88479, 0
-11.8935, 6.91168, 3.75935, 0
-11.8967, 6.93338, 4.60045, 0
-11.9206, 6.93815, 2.91622, 0
-11.5802, 13.3652, 3.38406, 0
-11.1772, 13.3076, 4.89978, 0
-11.1954, 13.3309, 3.44601, 0
-11.663, 13.3646, 2.16196, 0
-11.1888, 13.3228, 3.73191, 0
-11.5709, 13.3504, 2.78215, 0
-11.1814, 13.3133, 4.31094, 0
-11.5604, 13.3652, 2.26088, 0
-11.1852, 13.3182, 4.0205, 0
-11.4107, 13.0459, 4.88635, 0
-11.1868, 12.8021, 2.1733, 0
-11.236, 12.9662, 2.67979, 0
-11.2352, 12.9831, 3.87508, 0
-10.9405, 7.74265, 4.89397, 0
-11.6784, 13.1048, 2.32815, 0
-11.2453, 12.9555, 2.30313, 0
-11.2132, 13.0071, 3.34201, 0
-11.4893, 6.74562, 2.13883, 0
-11.4036, 7.0604, 2.61823, 0
-11.0363, 13.419, 3.8993, 0
-11.627, 6.9846, 2.64582, 0
-10.8718, 13.5633, 4.07442, 0
-11.4398, 12.7455, 3.90387, 0
-11.8573, 13.0245, 2.28023, 0
-11.1454, 7.41738, 4.82862, 0
-11.422, 12.7361, 3.32053, 0
-11.1596, 7.4301, 4.12782, 0
-11.4131, 12.7425, 3.51291, 0
-11.1539, 7.42522, 4.35879, 0
-11.8766, 12.7716, 2.21936, 0
-11.3929, 6.93046, 2.68005, 0
-11.3855, 6.92599, 3.34517, 0
-11.0272, 13.4012, 4.47659, 0
-11.3812, 6.92337, 3.56951, 0
-10.9678, 13.7067, 2.53399, 0
-11.0228, 13.3924, 4.7683, 0
-11.396, 6.93237, 2.46127, 0
-11.3442, 13.1323, 3.20206, 0
-11.0405, 13.4275, 3.61322, 0
-11.423, 6.73695, 4.68317, 0
-11.6304, 6.99014, 2.42578, 0
-10.902, 13.5894, 3.83977, 0
-11.3895, 6.92842, 2.90005, 0
-11.0319, 13.4103, 4.18705, 0
-11.6698, 12.9723, 2.65023, 0
-11.5705, 6.89313, 3.05929, 0
-11.3671, 7.12538, 2.25597, 0
-11.4141, 13.05, 4.59201, 0
-11.0655, 13.4745, 2.20419, 0
-11.3433, 7.11046, 4.0466, 0
-11.3551, 13.2631, 2.59836, 0
-11.5918, 6.84018, 4.53912, 0
-10.8774, 13.6313, 3.23884, 0
-11.1791, 7.22857, 4.80092, 0
-11.0706, 13.5486, 2.34029, 0
-11.3377, 7.10698, 4.27747, 0
-11.4273, 13.0668, 2.86661, 0
-11.5889, 6.83847, 4.77707, 0
-11.3308, 13.3602, 2.27469, 0
-11.3989, 6.93416, 2.24363, 0
-11.6261, 9.98256, 2.96487, 0
-11.0474, 13.4393, 3.32952, 0
-10.9072, 13.6183, 3.55961, 0
-11.3806, 6.92299, 3.79683, 0
-11.6018, 6.84609, 3.83965, 0
-11.356, 13.146, 2.07703, 0
-11.3673, 6.91492, 4.48714, 0
-11.6722, 12.975, 2.36814, 0
-11.2094, 13.3489, 2.31295, 0
-11.374, 6.91896, 4.25574, 0
-11.6767, 12.98, 2.08751, 0
-11.6005, 6.84532, 4.07137, 0
-11.3537, 13.1433, 2.35669, 0
-11.3696, 7.12692, 2.03809, 0
-11.8865, 13.0188, 3.80539, 0
-11.5573, 9.42912, 3.52678, 0
-11.2297, 12.9763, 3.0542, 0
-10.9414, 7.73976, 3.96472, 0
-11.3558, 7.11832, 3.13903, 0
-11.3484, 7.11364, 3.58881, 0
-11.8006, 12.7203, 4.71013, 0
-11.3523, 7.11611, 3.36316, 0
-11.6675, 13.0623, 3.85463, 0
-11.3294, 13.1152, 4.64384, 0
-10.8915, 13.6364, 2.12537, 0
-11.6497, 12.95, 4.66739, 0
-11.6986, 13.0523, 4.40024, 0
-11.3361, 13.123, 4.06156, 0
-11.339, 13.1263, 3.77332, 0
-11.5727, 13.3555, 2.98323, 0
-11.1773, 13.308, 4.60333, 0
-11.2165, 7.32914, 2.26993, 0
-11.1909, 7.34061, 3.14496, 0
-11.1887, 7.33305, 3.3663, 0
-11.1967, 7.52752, 2.28914, 0
-11.3723, 10.6347, 3.29029, 0
-11.2448, 13.2767, 3.0616, 0
-11.3535, 7.37383, 2.18783, 0
-11.3711, 7.37574, 2.40783, 0
-11.1367, 7.45464, 3.04558, 0
-11.3648, 6.9134, 4.72251, 0
-11.1409, 7.65648, 2.19907, 0
-11.377, 10.6532, 3.03625, 0
-11.5423, 13.0362, 2.91059, 0
-11.1437, 7.68308, 3.98308, 0
-11.5233, 13.0401, 3.15502, 0
-11.1227, 7.65787, 4.20366, 0
-11.1494, 13.4161, 2.97546, 0
-11.5374, 6.69304, 4.34534, 0
-11.1322, 13.4166, 2.69334, 0
-11.4408, 6.73999, 4.03919, 0
-11.5913, 12.9858, 3.26271, 0
-11.7427, 13.1071, 3.67752, 0
-11.6527, 12.9534, 4.08079, 0
-11.5865, 12.928, 3.85624, 0
-11.6991, 13.0694, 4.92658, 0
-10.934, 13.6702, 2.15794, 0
-11.176, 6.91419, 2.06218, 0
-10.9181, 13.6542, 3.28184, 0
-10.925, 13.6876, 4.14977, 0
-10.8917, 13.5999, 4.71004, 0
-11.1703, 7.4917, 2.61936, 0
-11.3678, 10.6163, 3.54397, 0
-11.4034, 13.024, 2.50213, 0
-10.9791, 7.80217, 3.30547, 0
-11.46, 13.0314, 2.77623, 0
-10.9596, 7.77653, 3.52223, 0
-11.25, 12.9676, 4.55413, 0
-11.671, 13.0884, 2.89068, 0
-11.2342, 13.0026, 4.8005, 0
-11.7673, 13.111, 3.37853, 0
-10.7113, 13.6606, 4.45038, 0
-10.7225, 13.7258, 3.88727, 0
-10.7407, 13.7744, 3.61089, 0
-11.2382, 7.23182, 2.72143, 0
-11.3192, 7.35249, 2.67164, 0
-11.1442, 7.68471, 2.26448, 0
-11.4538, 13.0485, 2.21002, 0
-11.1774, 7.71493, 3.14089, 0
-11.6209, 13.0289, 3.58727, 0
-10.8725, 13.5438, 4.35577, 0
-11.3343, 7.10484, 4.74901, 0
-11.3363, 7.10606, 4.51211, 0
-11.2118, 13.0006, 4.22862, 0
-11.6737, 13.0954, 2.60867, 0
-11.6595, 13.0032, 3.0115, 0
-10.6535, 13.8709, 2.26204, 0
-11.3524, 7.45946, 4.48884, 0
-11.3465, 7.46724, 3.82492, 0
-11.3611, 7.45731, 4.94158, 0
-11.4583, 12.7459, 4.10175, 0
-11.9447, 12.8046, 2.7768, 0
-11.6679, 6.72254, 4.59353, 0
-11.6165, 6.6993, 4.80314, 0
-11.5627, 6.69536, 3.91487, 0
-11.6054, 6.72261, 2.21358, 0
-11.591, 6.72032, 2.42429, 0
-11.1737, 7.44276, 3.4455, 0
-11.1647, 7.43459, 3.89866, 0
-11.1693, 7.43877, 3.67124, 0
-11.5999, 6.64817, 4.28047, 0
-11.6073, 6.64624, 3.63553, 0
-11.249, 7.28379, 4.47497, 0
-11.924, 12.7267, 2.22078, 0
-11.1835, 7.30469, 4.26954, 0
-11.1833, 7.31086, 4.04039, 0
-11.6091, 6.80731, 3.71363, 0
-11.8635, 12.7435, 4.15858, 0
-11.5504, 7.38248, 2.15408, 0
-11.2438, 7.05091, 3.61229, 0
-11.4602, 13.0484, 4.12711, 0
-11.0053, 7.92929, 4.92689, 0
-11.431, 13.0417, 3.84061, 0
-11.1341, 7.6657, 4.4688, 0
-11.3915, 13.0231, 3.55496, 0
-11.1772, 13.2068, 2.66754, 0
-11.1995, 13.2855, 2.09228, 0
31.2393, -38.1586, 2.2423, 0
28.9798, -36.5779, 2.04606, 0
13.6509, 19.3525, 2.36226, 0
13.6785, 19.3627, 4.51971, 0
13.7751, 19.3663, 2.95819, 0
13.7833, 16.3302, 4.07988, 0
13.4452, 15.1786, 2.15591, 0
13.4765, 16.125, 2.31912, 0
13.4528, 18.7379, 2.44534, 0
13.6608, 18.7422, 3.53146, 0
13.4926, 18.7383, 2.66163, 0
13.6158, 18.7405, 3.31311, 0
13.4165, 18.7383, 2.2288, 0
6.62321, 18.9968, 2.26826, 0
13.6272, 16.0013, 2.72551, 0
13.7723, 15.3212, 3.77517, 0
13.7794, 16.2992, 3.75231, 0
13.7461, 16.1449, 2.22649, 0
13.755, 15.1348, 3.19542, 0
13.7554, 15.1224, 2.95456, 0
13.7532, 15.1328, 2.70227, 0
13.7085, 15.9531, 3.33776, 0
13.7229, 15.642, 2.24122, 0
13.6383, 15.4443, 2.43758, 0
13.6417, 15.8018, 2.38314, 0
13.6447, 16.3872, 2.43696, 0
13.6588, 15.3944, 3.54728, 0
13.6826, 15.3338, 3.24476, 0
13.683, 15.3759, 2.37913, 0
13.6866, 15.4041, 2.94237, 0
13.6906, 16.0042, 3.04867, 0
13.6761, 15.9527, 2.30269, 0
13.6567, 16.39, 2.50635, 0
13.6571, 16.3953, 2.66631, 0
13.6019, 15.4202, 3.26769, 0
13.583, 15.4122, 2.89054, 0
13.5861, 15.4317, 2.79816, 0
13.7467, 15.8818, 2.21958, 0
7.59405, 19.2841, 4.10148, 0
12.5645, 20.1117, 3.29343, 0
12.5948, 20.2298, 3.6861, 0
13.5662, 19.0019, 3.95104, 0
13.684, 15.6746, 2.47337, 0
12.57, 20.1146, 4.0525, 0
7.3446, 18.9923, 2.61269, 0
13.5919, 19.0149, 3.72026, 0
13.6683, 16.0136, 2.74831, 0
13.5627, 19.0141, 4.33488, 0
13.9456, 18.7458, 2.74455, 0
13.9475, 18.7234, 4.63147, 0
6.96726, 19.0662, 3.48197, 0
7.31518, 18.9886, 2.21591, 0
13.5984, 19.0063, 2.96233, 0
14.1973, 18.5902, 4.51838, 0
12.5597, 20.1089, 2.53794, 0
13.3912, 19.2196, 2.04939, 0
6.62573, 19.2051, 2.98291, 0
13.6169, 18.9839, 2.83196, 0
14.068, 18.7199, 4.11501, 0
13.6095, 19.0082, 2.16042, 0
12.7763, 19.9445, 2.88438, 0
7.68148, 19.1095, 2.41356, 0
13.8219, 18.8131, 3.97734, 0
13.9799, 18.8691, 3.40156, 0
13.827, 18.8271, 4.48769, 0
7.98707, 19.0186, 2.92284, 0
13.6562, 19.0502, 2.42597, 0
6.60439, 19.1862, 2.25898, 0
13.6344, 19.0197, 4.70318, 0
13.6598, 19.0552, 2.05121, 0
13.6562, 16.2211, 3.58991, 0
13.7837, 16.2176, 2.75508, 0
12.8278, 19.9511, 3.25979, 0
13.6579, 16.457, 3.30255, 0
7.113, 19.4749, 3.27504, 0
13.4629, 19.3569, 4.1397, 0
14.0782, 18.7632, 2.60382, 0
7.37739, 18.9919, 2.47132, 0
13.7837, 18.9411, 3.34037, 0
7.65883, 19.1279, 2.78528, 0
13.4776, 19.3777, 2.07826, 0
13.6361, 16.3419, 3.18825, 0
13.6524, 19.0449, 2.80174, 0
13.7396, 16.3001, 3.22712, 0
14.0075, 18.9229, 3.02935, 0
6.81649, 19.1049, 2.42575, 0
13.8291, 18.9146, 4.72243, 0
7.37543, 18.9939, 2.73952, 0
13.7851, 18.969, 3.72243, 0
6.04632, 19.5448, 3.58448, 0
5.803, 19.7137, 3.38033, 0
13.6356, 19.3579, 2.87615, 0
7.65206, 19.1173, 3.45307, 0
13.6624, 16.3132, 2.96841, 0
8.12817, 18.9719, 3.56884, 0
13.6563, 19.1058, 3.01554, 0
13.3769, 19.1992, 3.55407, 0
7.21954, 19.1342, 2.76301, 0
13.6334, 16.4951, 3.06615, 0
13.3754, 19.2358, 4.53206, 0
7.10368, 19.0823, 3.5606, 0
13.1848, 19.4837, 4.70591, 0
7.34628, 18.9902, 2.34365, 0
14.0125, 18.6969, 4.87178, 0
13.5952, 19.0106, 3.34042, 0
13.9869, 18.8012, 2.26824, 0
12.8919, 17.3401, 2.96186, 0
13.8007, 16.3002, 2.4419, 0
13.639, 19.0607, 4.91661, 0
13.9244, 18.7237, 4.25027, 0
14.2615, 18.6321, 2.63579, 0
13.8887, 18.9791, 2.06718, 0
13.7418, 16.3543, 2.8889, 0
13.873, 18.96, 2.44171, 0
14.0939, 18.724, 2.03503, 0
14.0434, 18.7045, 2.78004, 0
13.3872, 19.2139, 2.42374, 0
13.9864, 18.7546, 3.75874, 0
7.93303, 19.0442, 3.08347, 0
14.2803, 18.639, 3.013, 0
12.7862, 19.9638, 2.13139, 0
13.6505, 16.4367, 3.45564, 0
13.8759, 18.8584, 2.97258, 0
12.8909, 19.9751, 3.63872, 0
13.9535, 18.7826, 4.52825, 0
13.3883, 19.2712, 3.01596, 0
7.91306, 19.0475, 3.47828, 0
14.0452, 18.7443, 2.97625, 0
13.9585, 18.8064, 4.15128, 0
13.3843, 19.2097, 2.79932, 0
7.91276, 19.0378, 3.41492, 0
7.46363, 19.2151, 3.46637, 0
13.78, 19.06, 4.45417, 0
12.5669, 20.1906, 2.92318, 0
13.6438, 19.0148, 2.27008, 0
12.8745, 19.9444, 4.39722, 0
6.7013, 19.7643, 2.97804, 0
12.8179, 19.9308, 4.01615, 0
5.85275, 19.5422, 3.27961, 0
5.87103, 19.5469, 2.94777, 0
13.6861, 15.4411, 2.65607, 0
12.6495, 19.8429, 4.36406, 0
12.5788, 20.1217, 4.81736, 0
13.6557, 15.528, 3.04399, 0
13.7398, 15.2321, 2.12439, 0
12.655, 19.8059, 3.97688, 0
12.6484, 19.8914, 3.60818, 0
6.76666, 19.5808, 3.49477, 0
12.6096, 19.8797, 2.85057, 0
12.6162, 19.8424, 2.46749, 0
6.73868, 19.7611, 3.30759, 0
12.9108, 19.6832, 4.32119, 0
13.9501, 18.7607, 4.90669, 0
13.3814, 19.2057, 3.17619, 0
7.25002, 19.1786, 2.51083, 0
13.6332, 16.4661, 2.59107, 0
13.4268, 19.3659, 4.00004, 0
12.8898, 19.6976, 2.42441, 0
13.7473, 16.3902, 4.21267, 0
13.8619, 19.1049, 4.83432, 0
7.4042, 19.2835, 3.82, 0
14.0666, 18.7116, 2.40711, 0
12.9322, 19.6667, 3.61123, 0
6.78735, 19.5887, 3.15771, 0
13.2138, 19.4861, 4.32303, 0
13.6307, 16.4614, 3.40508, 0
13.3739, 19.1948, 3.93397, 0
7.15411, 19.2623, 2.96942, 0
13.7284, 19.0911, 4.24816, 0
7.47015, 19.2876, 3.36911, 0
13.1478, 19.4922, 2.81324, 0
7.96746, 19.0138, 3.25371, 0
13.6599, 19.115, 2.63985, 0
7.46591, 19.221, 3.13188, 0
13.1791, 19.495, 2.43113, 0
13.6854, 19.0723, 3.87432, 0
6.65952, 19.2034, 3.30523, 0
6.69332, 19.2016, 3.62782, 0
7.46806, 19.2266, 2.79874, 0
13.1144, 19.4923, 2.06083, 0
13.6516, 19.0665, 3.50212, 0
13.6365, 15.7849, 3.71354, 0
6.87603, 19.099, 2.76712, 0
6.88136, 19.1002, 3.08951, 0
6.78167, 19.1375, 3.19035, 0
7.50987, 19.1784, 2.27933, 0
13.6592, 19.0773, 3.26891, 0
6.6974, 19.2822, 4.07163, 0
7.65604, 19.1241, 3.11871, 0
13.6447, 19.3501, 2.54898, 0
13.7811, 16.0058, 3.56383, 0
13.6298, 19.0357, 4.5746, 0
6.40559, 19.0155, 2.81281, 0
6.53146, 19.2845, 2.82056, 0
13.6338, 16.3832, 3.47942, 0
13.3708, 19.1903, 4.31571, 0
7.099, 19.2916, 3.30431, 0
6.44713, 19.0099, 3.04346, 0
6.33997, 19.0086, 2.34482, 0
12.5817, 20.0577, 4.42442, 0
13.6829, 15.4517, 2.69997, 0
13.6628, 15.5936, 3.54629, 0
13.6466, 16.3312, 3.08749, 0
13.6584, 15.5451, 3.43612, 0
13.6445, 15.543, 2.79097, 0
13.6489, 15.5353, 2.89747, 0
13.6419, 15.6348, 3.21859, 0
7.72006, 19.0984, 3.20427, 0
13.4813, 19.3651, 2.6605, 0
13.6316, 16.1847, 2.79981, 0
13.622, 16.322, 3.52876, 0
6.55096, 19.2891, 3.76018, 0
12.9274, 19.7676, 2.10151, 0
13.4173, 19.369, 3.71216, 0
13.6012, 15.5336, 3.62564, 0
6.78045, 19.2616, 3.77959, 0
13.3303, 19.1885, 4.90539, 0
13.8364, 18.922, 4.33818, 0
13.3266, 19.2645, 2.57464, 0
0.938908, -16.9269, 5.7125, 0
0.951567, -16.925, 5.24754, 0
1.21138, -17.2671, 5.41572, 0
1.20916, -17.2662, 5.24257, 0
1.2202, -17.2516, 5.8574, 0
1.12305, -17.2537, 5.69033, 0
0.637282, -17.2132, 5.11132, 0
0.630449, -17.0806, 5.25659, 0
0.75519, -17.2531, 5.0134, 0
0.737783, -17.2519, 4.95209, 0
0.74287, -17.3344, 5.5925, 0
0.857758, -17.1345, 5.89739, 0
0.957747, -16.9253, 5.86497, 0
0.833467, -17.13, 5.48233, 0
0.961077, -17.5521, 5.4907, 0
0.833163, -17.1237, 5.7817, 0
0.991681, -17.2538, 5.85913, 0
0.587694, -17.2548, 5.25988, 0
0.764042, -17.315, 5.56664, 0
0.739315, -17.2964, 5.9921, 0
-4.77946, -17.3986, 5.20332, 0
-4.68319, -17.3777, 5.72063, 0
1.35497, -17.1192, 5.53258, 0
0.954765, -17.287, 5.43154, 0
0.922933, -17.5914, 5.80071, 0
1.1779, -17.1101, 5.184, 0
1.17745, -17.1035, 5.48033, 0
1.1774, -17.1028, 5.78148, 0
0.833413, -17.1288, 5.18356, 0
0.599824, -17.1257, 5.55681, 0
0.39895, -17.1966, 4.99755, 0
0.407466, -17.1835, 5.82839, 0
-11.6358, -1.57161, 5.63871, 0
-11.6622, -1.53799, 5.31149, 0
-11.6449, -2.45593, 5.62429, 0
-11.6006, 4.43281, 5.18508, 0
-11.5639, 1.183, 5.06001, 0
-11.5628, 1.18901, 5.34152, 0
-11.5649, 1.2168, 5.61524, 0
-11.6417, -2.31373, 4.95436, 0
-11.587, 0.811952, 5.06398, 0
-11.5818, 0.813381, 5.61439, 0
-11.5598, 0.806734, 5.3201, 0
-11.5501, 0.816869, 5.92367, 0
-11.6579, -4.76727, 4.96552, 0
-11.6129, -4.76383, 5.999, 0
-11.5749, -4.67545, 5.69819, 0
-11.6019, -4.68136, 5.29188, 0
-11.5687, 1.06142, 5.85696, 0
-11.5089, 0.31968, 5.86521, 0
-11.4047, 1.60078, 5.49985, 0
-11.3752, 1.50963, 5.87078, 0
-11.4442, 1.13582, 5.43359, 0
-11.4386, 1.13568, 5.65506, 0
-11.4777, 0.742069, 5.34461, 0
-11.4603, 1.13662, 5.00199, 0
-11.4726, -4.88221, 5.33919, 0
-11.5078, 0.53599, 5.16009, 0
-11.5784, -4.15978, 5.39214, 0
-11.6, 0.531559, 5.7456, 0
-11.5788, -4.16393, 5.16498, 0
-11.4711, 0.743802, 5.79256, 0
-11.5814, 0.431406, 5.23028, 0
-11.5545, 0.379343, 5.53146, 0
-11.4703, -4.88124, 5.57381, 0
-11.3984, 0.803912, 5.10924, 0
-11.395, 0.803673, 5.32679, 0
-11.3887, 0.803226, 5.77167, 0
-11.3856, 0.803007, 5.99934, 0
-11.3626, 1.68653, 5.72616, 0
-11.3539, 1.68184, 5.94487, 0
-11.3698, 1.69098, 5.50981, 0
-11.6393, -4.34781, 5.67841, 0
-11.886, 0.825305, 5.55821, 0
-11.8553, 0.873343, 5.42804, 0
-11.2498, 1.86527, 5.46792, 0
-11.5066, 0.325942, 5.65931, 0
-11.6774, -4.37516, 5.00473, 0
-11.4739, -4.88278, 5.10724, 0
-11.2946, 1.53761, 5.67738, 0
-11.6949, -4.40898, 5.84456, 0
-11.4343, 1.48297, 5.06138, 0
-11.4143, 1.67284, 5.03714, 0
-11.3788, 1.9941, 5.09619, 0
-11.423, 2.02397, 5.5277, 0
13.5963, -7.78003, 3.83371, 0
13.6898, -14.409, 4.08492, 0
13.744, -7.7167, 3.60034, 0
13.7257, -7.67449, 4.03288, 0
13.9574, -5.07667, 2.65731, 0
13.1065, -11.5801, 3.0291, 0
13.6175, -7.72091, 4.08219, 0
13.6563, -7.69088, 3.24231, 0
13.5108, -7.97345, 2.23418, 0
13.6624, -11.1186, 4.51882, 0
13.6537, -11.1131, 4.30682, 0
13.6571, -11.1273, 3.69047, 0
13.3465, -14.3247, 2.52922, 0
13.3482, -13.7067, 3.21594, 0
13.3457, -13.6995, 2.93281, 0
13.3479, -8.73875, 3.08761, 0
13.3466, -7.76597, 2.60035, 0
13.3023, -14.1662, 3.13979, 0
13.4891, -14.2962, 2.22619, 0
13.4945, -13.922, 2.21036, 0
13.5066, -7.5856, 2.24168, 0
13.5146, -8.4181, 2.12386, 0
13.515, -7.69022, 2.24435, 0
13.5195, -8.69457, 2.23633, 0
13.5147, -11.5776, 4.71183, 0
13.5051, -11.5814, 4.36728, 0
13.5324, -11.5745, 3.86541, 0
13.5183, -11.5784, 3.52809, 0
13.5084, -11.5807, 3.18383, 0
13.5163, -11.5793, 2.88241, 0
13.53, -11.5766, 2.56177, 0
13.52, -11.5796, 2.29746, 0
13.5346, -11.5744, 2.07729, 0
13.5059, -8.20987, 3.79954, 0
13.4614, -13.6901, 2.37642, 0
13.2845, -14.6007, 2.43169, 0
13.706, -5.22147, 3.60924, 0
13.5782, -7.93342, 2.85069, 0
13.3385, -13.8973, 2.57894, 0
13.4623, -14.3273, 2.39643, 0
13.5696, -7.60731, 3.91247, 0
13.5158, -8.17431, 2.91196, 0
13.4606, -14.1958, 3.29079, 0
13.4731, -14.583, 2.49582, 0
13.4794, -13.9944, 2.46272, 0
13.5153, -8.57047, 2.54197, 0
13.4986, -7.90247, 3.41392, 0
13.6721, -11.3126, 4.74026, 0
13.2977, -11.1492, 3.33002, 0
13.7035, -11.2657, 4.06057, 0
13.3463, -11.1017, 2.55165, 0
13.6665, -11.3088, 4.51783, 0
13.3067, -11.1386, 3.13729, 0
13.5152, -7.54072, 2.52469, 0
13.5417, -8.17601, 3.37226, 0
13.3387, -13.5982, 3.06767, 0
13.6045, -8.5601, 3.63657, 0
13.3443, -11.2963, 2.93641, 0
13.6641, -5.32009, 4.54092, 0
13.3482, -5.09178, 2.9293, 0
13.5865, -7.80602, 3.48097, 0
13.5616, -8.08195, 3.50197, 0
13.5499, -14.157, 2.88026, 0
13.6114, -7.57796, 3.55792, 0
13.5251, -13.6664, 3.20182, 0
13.5859, -13.558, 3.47134, 0
13.5641, -13.5758, 3.27798, 0
13.3428, -8.72733, 2.79227, 0
13.6003, -13.6519, 3.49389, 0
13.6122, -7.53514, 3.04337, 0
13.6103, -7.56848, 3.3691, 0
13.6087, -8.13143, 2.72497, 0
13.5506, -14.5696, 3.47271, 0
13.5607, -13.9943, 2.76925, 0
13.5774, -8.25433, 3.46545, 0
13.6942, -8.56171, 3.18734, 0
13.5547, -13.6188, 2.67877, 0
13.5571, -14.5181, 3.4601, 0
13.6716, -11.0988, 2.29013, 0
13.5513, -13.9958, 3.48139, 0
13.5437, -14.4949, 2.94938, 0
13.5627, -13.8442, 2.68716, 0
13.5432, -14.5183, 3.24531, 0
13.562, -8.53502, 2.81398, 0
13.5513, -8.45903, 3.34503, 0
13.5746, -7.81477, 2.65188, 0
13.5805, -7.57716, 2.66334, 0
13.1945, -5.65459, 4.66316, 0
13.3341, -13.5934, 3.16878, 0
13.6361, -8.57499, 3.7816, 0
13.3456, -5.37854, 2.10757, 0
