X,Y,Z,I,
13.4933, 13.1316, 1.09816, 0
13.4905, 13.1413, 2.30474, 0
13.0866, 13.537, 4.53564, 0
13.2942, 7.52983, 2.30825, 0
13.5796, 12.9349, 2.84847, 0
13.6257, 6.85369, 4.34736, 0
13.6257, 6.85368, 4.61022, 0
13.1349, 13.6065, 1.18576, 0
13.6621, 6.87201, 1.82851, 0
13.6669, 6.87438, 1.58339, 0
13.6739, 6.87789, 1.09472, 0
13.2344, 8.21668, 3.64729, 0
13.4318, 13.022, 4.75327, 0
13.361, 7.11824, 3.80008, 0
13.3436, 7.10893, 4.83306, 0
13.3846, 7.13078, 2.05782, 0
13.3502, 7.11246, 4.57224, 0
13.3563, 7.11572, 4.05503, 0
13.0702, 13.5702, 2.09828, 0
13.3039, 7.50283, 4.54801, 0
13.5935, 6.69772, 1.2022, 0
13.3919, 13.1914, 1.94558, 0
13.3754, 13.1751, 3.46425, 0
13.5926, 12.9473, 1.64234, 0
13.3679, 13.1677, 4.08186, 0
13.3472, 6.73536, 4.77746, 0
13.6348, 6.85823, 3.83108, 0
13.3882, 13.1876, 2.24691, 0
13.3588, 13.1587, 4.70683, 0
13.3875, 7.13235, 1.81367, 0
13.4016, 13.2009, 1.04573, 0
13.5627, 12.9188, 4.38699, 0
13.3817, 7.12922, 2.30292, 0
13.3944, 13.1938, 1.64489, 0
13.3703, 13.1701, 3.77179, 0
13.589, 12.9439, 1.9424, 0
13.1537, 13.9102, 4.61186, 0
13.5961, 12.9507, 1.34296, 0
13.369, 7.12249, 3.29524, 0
13.2051, 8.18209, 3.14158, 0
13.5646, 12.9207, 4.07522, 0
13.1141, 13.9087, 4.29972, 0
13.5997, 12.9541, 1.04409, 0
13.6567, 6.86929, 2.32187, 0
13.3652, 7.12047, 3.54685, 0
13.6542, 6.86799, 2.57016, 0
13.0775, 13.91, 3.9906, 0
13.258, 8.25179, 3.40345, 0
13.3652, 13.1651, 4.39391, 0
12.8605, 13.7706, 1.22465, 0
13.3328, 7.56404, 4.24626, 0
13.5684, 6.69756, 1.6864, 0
13.587, 12.9419, 2.24355, 0
13.2375, 8.21352, 4.40585, 0
13.3951, 7.13639, 1.32786, 0
13.4426, 13.0229, 3.81708, 0
12.8664, 14.1297, 1.29023, 0
13.6192, 6.68455, 2.42931, 0
13.6378, 6.68746, 2.18498, 0
12.8942, 14.2237, 2.20352, 0
13.778, 12.8837, 1.40393, 0
12.8877, 14.2047, 1.59602, 0
13.7675, 12.8769, 1.70437, 0
13.5437, 6.67882, 3.66784, 0
12.8744, 14.133, 3.40986, 0
13.7371, 12.8575, 2.60934, 0
13.5082, 6.68063, 4.43049, 0
13.4391, 7.95442, 1.15117, 0
13.7482, 12.8649, 2.30711, 0
13.5221, 6.68099, 4.17507, 0
13.7578, 12.8708, 2.0054, 0
13.5353, 6.68106, 3.92125, 0
13.3384, 13.2942, 1.69014, 0
13.6901, 12.8322, 4.4541, 0
13.3264, 13.2516, 1.97883, 0
13.6815, 12.8273, 4.76756, 0
13.3246, 13.2582, 1.37709, 0
13.6982, 12.8367, 4.14255, 0
12.8771, 14.0957, 3.70991, 0
13.7284, 12.8525, 2.91301, 0
13.4989, 6.68254, 4.68943, 0
13.4066, 7.07884, 4.93147, 0
13.439, 7.06955, 1.40426, 0
13.6281, 6.77364, 2.3918, 0
13.6427, 6.77734, 1.90073, 0
13.6594, 6.87062, 2.0747, 0
13.5675, 6.76011, 4.66862, 0
13.6665, 6.76796, 4.03216, 0
13.622, 6.77243, 2.639, 0
13.6366, 6.77608, 2.14602, 0
13.6008, 6.68172, 2.6743, 0
13.5108, 12.9315, 3.43406, 0
13.5093, 12.9415, 3.74314, 0
12.8663, 13.7654, 1.82924, 0
13.7635, 12.7488, 1.32971, 0
13.7046, 10.3999, 3.79747, 0
12.8798, 13.8186, 2.13647, 0
13.7467, 12.7442, 1.62842, 0
12.8728, 13.785, 3.35006, 0
13.3948, 7.9483, 1.64376, 0
13.7909, 12.7439, 2.84359, 0
12.8929, 13.8108, 4.89759, 0
13.7139, 12.7175, 4.06136, 0
13.6971, 12.7133, 4.36992, 0
13.4519, 7.02895, 1.43848, 0
13.116, 7.78295, 4.06791, 0
13.4472, 7.02018, 1.19455, 0
13.1303, 7.81522, 3.82313, 0
13.4314, 7.01878, 3.67129, 0
13.4271, 7.00999, 3.41556, 0
13.3466, 7.50315, 4.8087, 0
13.5802, 6.69727, 1.44405, 0
13.3039, 7.51519, 3.79361, 0
13.2167, 8.23431, 1.17818, 0
13.5834, 12.9385, 2.54546, 0
13.6833, 12.7428, 2.37936, 0
12.881, 14.1577, 1.89515, 0
13.8112, 12.792, 1.18697, 0
13.6725, 12.7348, 3.90459, 0
13.6858, 12.7155, 4.84297, 0
13.3157, 7.54919, 3.74187, 0
13.7583, 12.7225, 1.96727, 0
13.7975, 12.7429, 1.66923, 0
12.8726, 13.7332, 3.64766, 0
13.6824, 12.699, 2.86543, 0
-11.1758, 19.2825, 5.74126, 0
-11.9084, 18.8838, 5.07604, 0
-12.1011, 18.7354, 5.1492, 0
-11.7957, 18.9978, 5.48509, 0
-12.0991, 18.787, 5.50715, 0
-10.8693, 19.591, 5.16757, 0
-10.8405, 19.5135, 5.8992, 0
-11.5953, 18.9896, 5.96183, 0
-11.6026, 19.0016, 5.58854, 0
-11.1558, 19.324, 5.89065, 0
-11.1496, 19.3805, 5.11271, 0
-11.3535, 19.1671, 5.21764, 0
-11.1439, 19.3154, 5.51096, 0
-10.7777, 19.6596, 5.04992, 0
-11.3441, 19.1511, 5.96423, 0
-10.8492, 19.542, 5.52972, 0
-11.1365, 19.3145, 5.13665, 0
-11.6049, 19.0055, 5.21556, 0
-11.4384, 19.1339, 5.47008, 0
-11.1364, 19.3521, 5.85715, 0
-11.347, 19.156, 5.58868, 0
-10.8305, 19.4313, 5.71601, 0
-11.0812, 19.4176, 5.38715, 0
-10.656, 19.686, 5.88301, 0
-10.6349, 19.6399, 5.33399, 0
-10.633, 19.6585, 4.9715, 0
-12.0534, 18.7627, 5.86236, 0
-10.6374, 19.622, 5.69855, 0
-11.0717, 19.4374, 5.79073, 0
-11.5739, 0.682588, 1.12359, 0
-11.5428, 4.4392, 3.05854, 0
-11.5278, 3.64367, 3.82138, 0
-11.4931, 1.357, 4.47332, 0
-11.4079, 1.2628, 2.65126, 0
-11.5408, -2.26024, 3.56825, 0
-11.5999, -4.77661, 4.40062, 0
-11.5589, -4.78296, 3.77677, 0
-11.6742, -4.81332, 2.14625, 0
-11.6021, -4.80694, 1.53475, 0
-11.5814, -4.80644, 1.74038, 0
-11.6313, -4.81087, 1.32713, 0
-11.5655, 1.01538, 1.16948, 0
-11.4405, 1.00426, 2.65064, 0
-11.4341, 0.626092, 4.49397, 0
-11.3931, 0.973008, 3.77241, 0
-11.2116, 0.842638, 3.63632, 0
-11.3031, 0.716917, 4.79678, 0
-11.3028, 0.725951, 4.21688, 0
-11.2981, 0.731628, 3.8374, 0
-11.3585, 0.717206, 2.55642, 0
-11.3422, 0.739307, 1.11614, 0
-11.3444, 0.73372, 1.47446, 0
-11.3901, 0.704062, 3.48116, 0
-11.3584, -4.91509, 1.22627, 0
-11.5534, 0.220797, 3.90954, 0
-11.568, 0.212454, 4.29679, 0
-11.5673, 0.208193, 4.38782, 0
-11.5706, 0.19899, 4.78542, 0
-11.6291, 0.189727, 3.63093, 0
-11.3996, -4.89406, 3.55888, 0
-11.7055, 0.192027, 1.96903, 0
-11.5046, 1.65265, 2.4901, 0
-11.7427, -4.56094, 4.18239, 0
-11.4023, 1.60693, 3.62515, 0
-11.4779, 1.58325, 1.14311, 0
-11.3906, 1.55098, 3.80198, 0
-11.3945, 1.54879, 3.40447, 0
-11.3896, 1.21723, 4.82364, 0
-11.3992, 1.21668, 4.616, 0
-11.4558, 0.807956, 1.55829, 0
-11.4397, 1.30539, 1.50183, 0
-11.4131, 0.804949, 4.26744, 0
-11.929, -4.25572, 1.70983, 0
-11.4442, 1.30518, 1.1321, 0
-11.4347, 1.30555, 1.87427, 0
-11.4288, 1.30562, 2.25008, 0
-11.4328, 1.30571, 2.06188, 0
-11.7896, -4.28065, 4.14553, 0
-11.4616, 0.808368, 1.18922, 0
-11.4521, 1.15584, 3.28077, 0
-11.4417, 1.15479, 3.87825, 0
-11.5561, 1.2773, 2.30378, 0
-11.4964, 1.64931, 2.11046, 0
-11.6159, 0.219906, 2.32555, 0
-11.8683, -4.63899, 1.32363, 0
-11.4938, -4.89123, 3.99301, 0
-11.4045, 0.804342, 4.89583, 0
-11.8756, -4.26111, 2.51062, 0
-11.4482, 1.15544, 3.47796, 0
-11.5508, 1.7515, 3.85691, 0
-11.4816, 1.58751, 1.70102, 0
-11.4099, 0.804722, 4.47422, 0
-11.9503, -4.25412, 2.11469, 0
-11.4479, 0.807404, 2.1176, 0
-11.4392, 1.15454, 4.08169, 0
-11.7271, -4.40754, 3.11065, 0
-11.486, 1.69045, 1.19566, 0
-11.9538, -4.12884, 3.96049, 0
-11.568, 1.75833, 3.66961, 0
-11.4778, 1.58572, 1.51395, 0
-11.4444, 0.807159, 2.30576, 0
-11.5291, -4.90625, 1.49809, 0
-11.4219, 0.805569, 3.66026, 0
-11.9083, -4.26207, 1.1101, 0
-11.5217, -4.90312, 1.90184, 0
-11.8558, -4.46876, 4.83596, 0
-11.5187, -4.90184, 2.10506, 0
-11.4495, 0.807517, 1.93011, 0
-11.4834, -4.88683, 4.43054, 0
-11.8789, -4.47691, 1.72111, 0
-11.5115, -4.89879, 2.7215, 0
-11.6736, 0.212772, 1.05954, 0
-11.617, 0.211378, 2.69261, 0
-11.4867, -4.88824, 4.21002, 0
-11.8851, -4.48202, 1.52216, 0
-11.7869, -4.27686, 4.35728, 0
-11.4289, 0.806064, 3.26567, 0
-11.5149, -4.90024, 2.51505, 0
-11.784, -4.60983, 4.63693, 0
-11.7591, -4.59436, 4.8485, 0
-11.7662, -4.58099, 3.7638, 0
-11.465, 1.6827, 2.11033, 0
-11.8023, -4.59777, 1.9189, 0
-11.8355, -4.62094, 1.52128, 0
-11.7929, -4.56982, 1.11715, 0
-11.5908, -4.79535, 2.55531, 0
-11.7338, -4.34685, 3.9393, 0
-11.7609, -4.35345, 2.2994, 0
-11.8783, -4.25737, 2.71447, 0
-11.5637, 0.620506, 1.73767, 0
-11.4356, 1.67169, 3.42372, 0
-11.418, 1.66514, 4.20354, 0
-11.5929, 1.43185, 1.09822, 0
-11.4775, 1.68734, 1.56015, 0
-11.4126, 1.66231, 4.60582, 0
-11.6077, 1.42973, 1.4642, 0
-11.4089, 1.66073, 4.80988, 0
-11.4901, 1.69197, 1.0138, 0
-11.4745, 1.68597, 1.74312, 0
-11.8276, -4.43232, 3.54008, 0
-11.43, 1.66892, 3.81124, 0
-11.435, 1.67063, 3.61729, 0
-11.8942, -4.49254, 4.19683, 0
-11.8664, -4.47589, 4.62051, 0
-11.4843, -4.88719, 4.65514, 0
-11.8661, -4.46652, 2.12004, 0
-11.6856, 0.200284, 1.60318, 0
-11.391, -4.92861, 3.35587, 0
-11.6924, 0.196131, 1.78547, 0
-11.3538, 0.719867, 2.37459, 0
-11.8247, -4.29002, 1.11749, 0
-11.3513, 0.722622, 2.19365, 0
-11.3464, 0.728109, 1.83331, 0
-11.9505, -4.13024, 3.7489, 0
-11.9592, -4.12551, 4.38909, 0
-11.9568, -4.12728, 4.17386, 0
-11.9985, -4.13103, 1.51788, 0
-11.4282, 19.2052, 1.77342, 0
-11.4924, 19.2245, 2.84879, 0
-11.4147, 19.1319, 3.58929, 0
-11.169, 19.3956, 4.25353, 0
-11.3838, 19.2182, 1.24171, 0
-11.1764, 19.4141, 2.08895, 0
-4.95761, 19.3386, 3.06614, 0
-4.9642, 19.336, 3.39057, 0
-10.8721, 19.518, 2.95748, 0
-11.1274, 19.3226, 4.39864, 0
-10.7863, 19.6588, 3.6242, 0
-10.8702, 19.5023, 3.31622, 0
-10.8645, 19.4677, 4.03687, 0
-11.1616, 19.2629, 3.62248, 0
-10.8662, 19.483, 3.67549, 0
-11.163, 19.2679, 3.26138, 0
-11.3596, 19.1773, 4.11278, 0
-11.6502, 19.003, 1.24775, 0
-12.1676, 18.7923, 2.64558, 0
-11.6071, 19.0091, 4.84511, 0
-10.6308, 19.6947, 1.75425, 0
-10.8854, 19.5783, 1.88784, 0
-11.1759, 19.303, 1.47551, 0
-10.8187, 19.4924, 4.61666, 0
-11.2422, 19.4208, 2.96461, 0
-11.378, 19.2084, 1.95322, 0
-11.1573, 19.2529, 3.98428, 0
-5.04332, 19.1153, 3.54684, 0
-5.45522, 19.2164, 3.03401, 0
-11.1681, 19.2819, 2.54403, 0
-11.1335, 19.3213, 4.76711, 0
-11.6336, 19.0524, 1.5966, 0
-11.1992, 19.3807, 1.88083, 0
-11.3814, 19.2142, 1.59722, 0
-11.029, 19.3938, 4.64312, 0
-11.0965, 19.3714, 2.79855, 0
-11.376, 19.205, 2.31027, 0
-11.1928, 19.3809, 1.52392, 0
-11.3557, 19.1706, 4.84704, 0
-11.8419, 19.0135, 1.91331, 0
-11.6092, 19.0124, 4.47703, 0
-10.6292, 19.7131, 1.40171, 0
-11.1779, 19.3091, 1.12054, 0
-10.8183, 19.5188, 4.25535, 0
-11.111, 19.3713, 3.15817, 0
-11.6242, 19.037, 2.66693, 0
-11.3704, 19.1956, 3.02731, 0
-11.628, 19.0432, 2.30936, 0
-5.71716, 19.1809, 3.65883, 0
-10.6513, 19.683, 4.04575, 0
-11.1307, 19.5206, 3.63017, 0
-11.1538, 19.3906, 4.74289, 0
-11.3577, 19.174, 4.47881, 0
-10.8805, 19.5574, 2.24374, 0
-10.765, 19.5186, 4.65408, 0
-12.0936, 18.7422, 4.06492, 0
-11.1848, 19.3784, 1.16771, 0
-10.8029, 19.6986, 4.3493, 0
-11.1169, 19.4995, 3.98602, 0
-5.45401, 19.2122, 3.35834, 0
-10.8749, 19.5351, 2.59992, 0
-11.1713, 19.29, 2.18716, 0
-4.9554, 19.406, 3.30968, 0
-11.1666, 19.2768, 2.90236, 0
-10.6309, 19.6769, 4.61064, 0
-11.173, 19.2955, 1.83088, 0
-4.97811, 19.3501, 3.0667, 0
-11.1195, 19.4598, 2.48981, 0
-11.6112, 19.0157, 4.11115, 0
-10.6727, 19.6623, 1.18866, 0
-12.0416, 18.7861, 4.05521, 0
-10.667, 19.6515, 2.96341, 0
-10.6694, 19.6873, 2.61033, 0
-10.6484, 19.6136, 4.76048, 0
-10.6369, 19.6628, 2.45994, 0
-10.6435, 19.632, 3.16752, 0
-11.388, 16.5005, 3.51996, 0
-10.6273, 19.7313, 1.04898, 0
-11.82, 18.9379, 3.68177, 0
-10.6405, 19.648, 2.81347, 0
-11.3878, 16.4738, 2.87679, 0
-11.6223, 19.0339, 3.02612, 0
-11.8092, 18.9677, 4.03925, 0
-11.9497, 18.9023, 3.99482, 0
-10.6473, 19.6435, 4.40174, 0
-12.0719, 18.7888, 4.77747, 0
-12.131, 18.8327, 2.28956, 0
-12.1483, 18.8581, 1.22908, 0
-11.8337, 19.0506, 3.33243, 0
-11.84, 19.0575, 2.26692, 0
-11.614, 19.0601, 3.93114, 0
-12.1415, 18.7653, 4.43377, 0
-10.8526, 19.6426, 1.39225, 0
-12.2153, 18.8337, 1.93608, 0
-10.9055, 19.4858, 1.16988, 0
-12.1517, 18.7853, 1.57581, 0
-11.6514, 19.1522, 3.57335, 0
-11.857, 18.985, 2.59859, 0
-11.8654, 18.9115, 2.24647, 0
-6.01274, 19.093, 3.06859, 0
-11.8676, 18.9663, 1.88833, 0
-11.6338, 19.0672, 1.95603, 0
-11.6301, 19.0466, 1.95245, 0
-5.70447, 19.1088, 3.27165, 0
-11.69, 19.1392, 1.05139, 0
-11.3879, 16.4871, 3.19803, 0
-11.4302, 19.1395, 3.23312, 0
-11.2496, 7.11982, 5.84815, 0
-11.4807, 13.0267, 5.52647, 0
-11.432, 6.70063, 5.21521, 0
-11.567, 6.6061, 5.02079, 0
-11.5935, 6.60633, 5.47897, 0
-11.5631, 6.60747, 5.69857, 0
-11.6148, 6.60378, 5.94534, 0
-11.7606, 12.7066, 5.59151, 0
-11.3604, 6.77192, 5.16236, 0
-11.3469, 6.77914, 5.61578, 0
-11.3517, 6.77437, 5.3873, 0
-11.5246, 6.67576, 5.65365, 0
-11.5095, 6.67451, 5.88215, 0
-11.5453, 6.68017, 5.42909, 0
-11.0153, 13.6725, 5.90595, 0
-11.8567, 12.6591, 5.29944, 0
-11.4103, 13.0262, 5.73184, 0
-11.2783, 7.29862, 5.16551, 0
-11.9114, 12.6788, 5.60228, 0
-11.1792, 13.2898, 5.74892, 0
-11.6407, 12.94, 5.26106, 0
-11.3151, 13.0987, 5.83742, 0
-11.6455, 12.9454, 4.96312, 0
-11.3683, 7.2851, 5.45172, 0
-11.1429, 7.33189, 5.3908, 0
-10.9488, 13.5728, 5.03704, 0
-11.3209, 13.1053, 5.53594, 0
-11.6346, 12.9332, 5.86678, 0
-11.4131, 13.0316, 5.12981, 0
-10.8496, 13.6671, 5.67387, 0
-11.3898, 7.29103, 5.70289, 0
-11.29, 7.26931, 5.91141, 0
-11.3258, 13.1111, 5.23689, 0
-11.6406, 12.9399, 5.56386, 0
-11.1852, 13.2982, 5.44789, 0
-11.1859, 13.3002, 5.14702, 0
-11.1043, 7.45335, 5.60713, 0
-11.1002, 7.44912, 5.85471, 0
-10.8605, 13.7091, 5.09739, 0
-11.1578, 7.55031, 5.44684, 0
-10.964, 13.4734, 5.7516, 0
-10.9765, 13.5007, 5.15636, 0
-11.1861, 7.57929, 4.97636, 0
-10.9312, 13.5116, 5.61216, 0
-11.3538, 7.39097, 5.09432, 0
-11.2787, 7.36733, 5.78538, 0
-11.8244, 12.7289, 5.03152, 0
-11.2706, 7.37054, 5.5425, 0
-11.8392, 12.7291, 5.90316, 0
-11.1053, 13.3896, 5.41731, 0
-10.8533, 13.6165, 5.43832, 0
-11.7901, 12.7151, 5.31012, 0
-11.1049, 7.71858, 5.09953, 0
-10.8457, 13.6482, 5.96577, 0
13.6531, -4.94525, 1.81447, 0
13.7346, -4.936, 2.75146, 0
13.6587, 0.684182, 4.17112, 0
13.6572, 1.03695, 1.74886, 0
13.6686, 1.04167, 1.53078, 0
13.739, 1.07953, 2.19064, 0
13.7155, 1.07383, 2.40923, 0
13.4272, 0.666641, 2.94941, 0
13.7013, 2.33163, 4.9038, 0
13.6981, -4.93242, 2.51454, 0
13.5752, 0.286613, 2.56838, 0
13.7228, -4.94876, 1.11462, 0
13.5633, 0.312373, 1.47155, 0
13.5636, 0.302037, 1.90858, 0
13.4931, 0.303597, 3.66924, 0
13.5054, 0.287549, 4.35147, 0
13.4242, 0.319324, 4.79297, 0
13.3939, 0.483707, 3.43509, 0
13.3358, 1.06466, 3.59593, 0
13.3808, 0.663324, 2.61722, 0
13.34, 0.701246, 4.91685, 0
13.6794, 0.728338, 1.30642, 0
13.2747, 0.86638, 2.19117, 0
13.6644, 0.70791, 2.61666, 0
13.2581, 0.871603, 3.51185, 0
13.2702, 0.868169, 2.6272, 0
13.4336, -4.92464, 3.65243, 0
13.6763, 0.72491, 1.52462, 0
13.2907, 0.876668, 2.49199, 0
13.4115, 0.692422, 2.05244, 0
13.3998, 0.697588, 2.49016, 0
13.3278, 1.07837, 4.73668, 0
13.3006, 0.838464, 3.36044, 0
13.6701, 0.718057, 1.96083, 0
13.3104, 0.833076, 2.91499, 0
13.3856, 0.681742, 4.77953, 0
13.535, -4.92064, 1.49058, 0
13.4601, 0.813317, 2.48818, 0
13.4055, 0.676553, 4.3109, 0
13.542, -4.92316, 1.03056, 0
13.4695, 0.813885, 1.83102, 0
13.4242, 0.811145, 4.77444, 0
13.5006, -4.90812, 3.84912, 0
13.4989, -4.90749, 4.09395, 0
13.587, -2.12631, 2.85505, 0
13.439, 0.812038, 3.83748, 0
13.424, 0.811135, 4.53543, 0
13.4347, 0.81178, 4.06824, 0
13.6569, 0.690901, 3.72147, 0
13.3292, 0.895477, 4.61932, 0
13.4645, 0.813579, 2.04878, 0
13.3959, 0.679152, 4.54426, 0
13.5386, -4.92191, 1.26032, 0
13.3446, 0.893446, 3.92273, 0
13.452, 1.1302, 1.18104, 0
13.4718, 0.814021, 1.61369, 0
13.3681, 0.697997, 3.76219, 0
13.4148, 1.12707, 3.60714, 0
13.4788, 0.814442, 1.18139, 0
13.3592, 0.716531, 3.62321, 0
13.4182, 1.12736, 3.38001, 0
13.4109, 1.12675, 3.83596, 0
13.4351, 1.12878, 2.26719, 0
13.4426, 1.12941, 1.83045, 0
13.4405, 1.12923, 2.0486, 0
13.3954, 1.12544, 4.77227, 0
13.3246, 0.864032, 1.82118, 0
13.4427, 0.812261, 3.60852, 0
13.5186, -4.91466, 2.65416, 0
13.5228, -4.91618, 2.41958, 0
13.3549, 0.891142, 3.24263, 0
13.4849, -4.90241, 4.83891, 0
13.4883, -4.90366, 4.58785, 0
13.5314, -4.91933, 1.72148, 0
13.3629, 0.888748, 2.57663, 0
13.5238, -4.91654, 2.18558, 0
13.3576, 0.890345, 3.01919, 0
13.3314, 0.858645, 1.39036, 0
13.4318, 1.08247, 4.42032, 0
13.3402, 0.894163, 4.15299, 0
13.4648, 1.072, 1.50058, 0
13.4065, 1.12638, 4.06657, 0
13.3357, 0.856025, 1.17595, 0
13.3293, 0.896535, 4.85806, 0
13.5299, 0.715408, 1.94412, 0
13.3432, 1.08577, 4.50917, 0
13.5406, 0.714103, 1.50818, 0
13.5511, 0.7128, 1.07462, 0
12.908, 19.5875, 5.81808, 0
13.8772, 18.77, 5.31006, 0
12.9941, 19.6278, 5.0496, 0
13.7934, 18.9083, 5.91221, 0
13.0165, 19.4702, 5.49888, 0
13.8138, 18.9262, 5.13352, 0
12.9036, 19.9692, 5.46552, 0
13.2995, 19.307, 5.07331, 0
13.2348, 19.3125, 5.70678, 0
13.3601, 19.1751, 5.47366, 0
13.364, 19.1806, 5.08538, 0
13.8574, 18.7618, 5.69661, 0
13.6316, 19.0158, 5.0897, 0
12.6093, 20.0785, 5.48589, 0
13.6183, 18.9607, 5.69174, 0
13.6252, 19.0069, 5.87023, 0
13.8413, 18.7229, 5.55403, 0
13.8692, 18.7318, 5.17194, 0
12.6059, 20.1433, 5.1127, 0
13.6285, 19.0115, 5.47866, 0
12.6153, 20.1605, 5.89181, 0
13.2548, 19.2824, 5.45262, 0
13.8739, 18.6714, 5.33403, 0
13.9343, 18.7457, 5.96453, 0
12.8446, 19.9471, 5.07485, 0
12.6696, 19.7335, 5.46876, 0
-11.5521, 7.03373, 1.41278, 0
-11.2248, 13.3472, 1.47045, 0
-11.4437, 13.0406, 3.7172, 0
-11.5448, 13.0211, 1.31904, 0
-11.5156, 13.0361, 3.82402, 0
-11.8702, 12.815, 1.09436, 0
-11.6304, 6.67532, 4.8024, 0
-11.8982, 12.7017, 1.12688, 0
-11.9242, 12.698, 1.95587, 0
-11.8363, 12.6647, 3.88249, 0
-11.6404, 6.63471, 1.81004, 0
-11.6831, 6.61816, 4.38404, 0
-11.6003, 12.9706, 1.67865, 0
-11.8893, 12.781, 1.697, 0
-11.8153, 12.7354, 4.1802, 0
-11.785, 12.7256, 4.45605, 0
-11.5765, 6.71865, 1.31903, 0
-11.6818, 6.74824, 1.95626, 0
-11.5575, 6.69579, 4.08784, 0
-11.5981, 6.70486, 3.65947, 0
-11.2608, 13.4318, 2.47766, 0
-11.2734, 13.4482, 1.92693, 0
-11.401, 7.38511, 1.87399, 0
-10.8551, 13.6638, 3.93908, 0
-10.8552, 13.6773, 3.65874, 0
-10.8506, 13.6447, 2.26215, 0
-11.5919, 7.03569, 1.85427, 0
-11.1187, 7.73579, 3.30205, 0
-11.5275, 12.9789, 1.60026, 0
-11.1226, 7.74594, 3.08554, 0
-11.1411, 7.77035, 1.16103, 0
-11.1281, 7.74681, 1.58388, 0
-10.8794, 13.6867, 4.87072, 0
-11.5816, 7.04086, 2.74138, 0
-10.8542, 13.5984, 4.27177, 0
-10.8713, 13.6735, 3.43365, 0
-10.9069, 13.7138, 2.04122, 0
-11.5707, 12.9543, 3.88259, 0
-11.4591, 6.69392, 4.33915, 0
-11.1627, 13.4356, 2.85503, 0
-11.4595, 6.70869, 3.90728, 0
-11.1469, 13.433, 2.57507, 0
-11.5117, 12.9775, 2.43055, 0
-11.1373, 7.70646, 3.95708, 0
-11.5422, 13.0085, 2.94215, 0
-11.1116, 7.67135, 4.39917, 0
-11.5309, 13.0228, 2.15164, 0
-11.1645, 7.73406, 3.7418, 0
-11.5476, 13.0397, 2.66094, 0
-11.1238, 7.68851, 4.17733, 0
-11.1503, 7.74383, 1.77614, 0
-11.1272, 7.71146, 2.20081, 0
-11.2859, 7.38672, 3.92978, 0
-11.3295, 7.38317, 4.85214, 0
-11.2967, 7.38591, 4.15692, 0
-11.3201, 7.38521, 4.61854, 0
-11.3069, 7.40321, 2.40015, 0
-11.3148, 7.40079, 2.61649, 0
-11.3581, 7.41515, 1.54782, 0
-10.93, 13.4778, 4.72068, 0
-10.9438, 13.5706, 3.59199, 0
-10.9337, 13.5014, 4.43663, 0
-11.5514, 7.03377, 2.52078, 0
-10.938, 13.5446, 3.87161, 0
-11.6502, 6.61495, 3.94021, 0
-11.2588, 13.3815, 2.73779, 0
-11.5628, 6.7177, 1.52898, 0
-11.1888, 7.65948, 4.77182, 0
-11.2295, 7.65923, 1.01335, 0
-11.1776, 7.39845, 2.92114, 0
-11.1775, 7.40577, 2.70496, 0
-11.3444, 7.3076, 2.71405, 0
-11.2154, 13.3214, 2.96003, 0
-11.2063, 13.323, 2.67792, 0
-11.2877, 13.3561, 2.1259, 0
-11.339, 13.1263, 3.77332, 0
-11.3361, 13.123, 4.06156, 0
-11.6851, 12.9894, 1.24961, 0
-10.8483, 13.6808, 1.43941, 0
-11.6534, 12.9542, 4.37379, 0
-10.8489, 13.6686, 1.71341, 0
-11.6497, 12.95, 4.66739, 0
-11.6338, 13.0778, 2.50658, 0
-11.3294, 13.1152, 4.64384, 0
-11.6814, 12.9852, 1.5281, 0
-10.8895, 13.6504, 1.20733, 0
-11.6527, 12.9534, 4.08079, 0
-11.3523, 7.11611, 3.36316, 0
-11.4579, 9.63899, 3.8128, 0
-11.6915, 12.7291, 4.70522, 0
-10.8855, 13.6112, 1.75565, 0
-11.1376, 7.48543, 3.95188, 0
-11.3484, 7.11364, 3.58881, 0
-11.2445, 13.3836, 1.70893, 0
-11.3558, 7.11832, 3.13903, 0
-11.8825, 12.6752, 4.17078, 0
-11.0298, 13.5532, 1.16333, 0
-11.3696, 7.12692, 2.03809, 0
-11.4728, 12.9778, 4.94729, 0
-11.1536, 7.50016, 3.27475, 0
-11.3537, 13.1433, 2.35669, 0
-11.6005, 6.84532, 4.07137, 0
-11.6767, 12.98, 2.08751, 0
-11.374, 6.91896, 4.25574, 0
-11.9079, 12.7839, 2.52451, 0
-11.1684, 7.29595, 3.70012, 0
-11.6722, 12.975, 2.36814, 0
-11.3673, 6.91492, 4.48714, 0
-11.356, 13.146, 2.07703, 0
-11.6018, 6.84609, 3.83965, 0
-11.3806, 6.92299, 3.79683, 0
-11.5241, 6.69089, 4.52152, 0
-10.9897, 13.4601, 3.39825, 0
-11.8514, 12.7514, 3.9062, 0
-11.3989, 6.93416, 2.24363, 0
-11.0235, 13.54, 1.44041, 0
-11.5889, 6.83847, 4.77707, 0
-11.3377, 7.10698, 4.27747, 0
-11.4718, 6.69776, 3.69473, 0
-11.2358, 13.3711, 2.26918, 0
-11.4142, 6.94343, 1.16886, 0
-11.1774, 7.32533, 4.21813, 0
-11.4066, 6.93879, 1.81163, 0
-11.3343, 7.10484, 4.74901, 0
-11.5918, 6.84018, 4.53912, 0
-11.4282, 13.0574, 2.81662, 0
-11.3433, 7.11046, 4.0466, 0
-11.24, 13.3772, 1.98865, 0
-11.3363, 7.10606, 4.51211, 0
-11.4116, 6.94185, 1.38247, 0
-11.159, 7.28616, 4.3864, 0
-11.3671, 7.12538, 2.25597, 0
-11.549, 6.71672, 1.73865, 0
-11.9092, 12.6877, 2.50651, 0
-11.6698, 12.9723, 2.65023, 0
-11.3648, 6.9134, 4.72251, 0
-11.3647, 13.1561, 1.2434, 0
-11.0085, 13.5576, 4.28537, 0
-11.8745, 12.7594, 4.75837, 0
-11.3895, 6.92842, 2.90005, 0
-11.221, 13.2676, 1.14327, 0
-11.5093, 6.68953, 4.74065, 0
-10.9868, 13.451, 3.6828, 0
-11.3442, 13.1323, 3.20206, 0
-10.9703, 13.7114, 1.10354, 0
-11.396, 6.93237, 2.46127, 0
-11.36, 13.1506, 1.79861, 0
-10.9841, 13.5159, 4.86287, 0
-11.3812, 6.92337, 3.56951, 0
-11.3622, 13.1532, 1.52066, 0
-10.9959, 13.5363, 4.57317, 0
-11.3855, 6.92599, 3.34517, 0
-10.9946, 13.7422, 1.37963, 0
-11.3929, 6.93046, 2.68005, 0
-11.8531, 12.7646, 1.96972, 0
-11.1727, 7.30117, 3.25144, 0
-11.8607, 12.7559, 2.79576, 0
-11.3809, 7.13402, 1.17515, 0
-11.1334, 7.48125, 4.1816, 0
-11.372, 7.12846, 1.82117, 0
-11.1171, 7.46619, 4.88226, 0
-11.3785, 7.13252, 1.38992, 0
-11.1287, 7.47671, 4.4132, 0
-11.1462, 7.49386, 3.49816, 0
-10.984, 13.442, 3.96902, 0
-11.3541, 7.3511, 1.10346, 0
-11.4189, 13.0404, 4.53976, 0
-11.5315, 13.0825, 4.85669, 0
-11.5611, 13.1237, 1.98989, 0
-11.561, 13.1247, 1.70921, 0
-11.5571, 13.1223, 1.14987, 0
-11.559, 13.1234, 1.42913, 0
-11.421, 13.0439, 4.24796, 0
-11.2043, 13.3267, 3.97477, 0
-11.2091, 13.3337, 3.6868, 0
-11.5859, 6.71453, 2.58556, 0
-11.2547, 13.397, 1.43056, 0
-11.1995, 13.3199, 4.26458, 0
-11.2138, 13.3404, 3.40044, 0
-11.1992, 7.32787, 1.51205, 0
-11.1938, 7.32202, 1.9412, 0
-11.1858, 7.31448, 2.37323, 0
-11.5865, 13.1696, 2.96833, 0
-11.2061, 7.33468, 1.08554, 0
-11.19, 7.31835, 2.15678, 0
-11.1842, 7.31227, 2.59127, 0
-11.1922, 7.53642, 1.52468, 0
-11.1784, 7.52329, 2.17381, 0
-11.1973, 7.54108, 1.30961, 0
-11.1871, 7.53168, 1.74027, 0
-11.208, 13.2534, 4.54766, 0
-11.2093, 13.2496, 4.84181, 0
-11.4861, 6.73136, 2.21662, 0
-11.2288, 7.60956, 2.2539, 0
-11.253, 7.63043, 2.03991, 0
-11.604, 6.7179, 2.37502, 0
-11.3324, 13.3567, 1.2909, 0
13.7221, 16.3627, 3.57408, 0
13.6165, 19.2541, 1.56084, 0
7.65344, 19.2072, 3.82023, 0
7.14368, 19.208, 3.82728, 0
6.70129, 19.2155, 3.51205, 0
6.68886, 19.2213, 3.19064, 0
13.3434, 19.3828, 2.8067, 0
13.2639, 19.3063, 4.31563, 0
13.0223, 19.4575, 2.84707, 0
13.0191, 19.4968, 3.22771, 0
13.0011, 19.5134, 3.60835, 0
13.0163, 19.5794, 3.99389, 0
6.18969, 19.3442, 3.00609, 0
6.17544, 19.342, 3.33583, 0
13.9539, 19.0812, 1.17203, 0
6.16147, 19.3397, 3.66586, 0
13.2823, 19.3781, 2.27489, 0
13.5679, 19.2111, 3.04577, 0
12.9967, 19.5042, 2.32291, 0
13.3233, 19.357, 4.55363, 0
13.6246, 18.912, 3.25031, 0
7.7531, 19.0317, 3.01134, 0
13.6167, 18.9296, 3.62862, 0
13.6183, 18.9392, 3.83258, 0
13.3135, 19.3898, 1.89281, 0
7.82161, 18.9894, 3.26682, 0
13.9683, 18.7259, 1.99637, 0
13.6294, 18.9673, 2.32607, 0
12.6547, 19.8483, 2.05739, 0
13.9608, 18.7191, 2.36976, 0
13.9683, 18.8437, 1.52269, 0
14.0032, 18.873, 1.15103, 0
13.3912, 19.2196, 2.04939, 0
13.8804, 18.7963, 3.01549, 0
13.6368, 18.9303, 4.52437, 0
13.6708, 18.9645, 1.50867, 0
6.83805, 19.3674, 2.81989, 0
13.6622, 19.0615, 3.77731, 0
7.75412, 19.0731, 2.84234, 0
13.3814, 19.2057, 3.17619, 0
12.9529, 19.6122, 4.28056, 0
13.8365, 18.9474, 4.36469, 0
13.3739, 19.1948, 3.93397, 0
12.9122, 19.5972, 4.66263, 0
13.9753, 18.7319, 1.62323, 0
7.80236, 19.0607, 3.51448, 0
13.7505, 16.3418, 3.2677, 0
13.3708, 19.1903, 4.31571, 0
13.6662, 19.0641, 1.30395, 0
13.2712, 19.3236, 2.05628, 0
13.8253, 18.9369, 4.74815, 0
13.9579, 18.804, 1.02406, 0
13.3843, 19.2097, 2.79932, 0
14.0208, 18.8588, 1.66379, 0
13.6539, 19.0317, 3.3922, 0
7.46806, 19.2266, 2.79874, 0
13.7414, 18.9255, 2.45364, 0
13.3979, 19.2293, 1.30284, 0
13.6524, 19.0449, 2.80174, 0
13.9569, 18.8161, 3.16486, 0
13.3769, 19.1992, 3.55407, 0
12.9994, 19.556, 4.61356, 0
7.15822, 19.3572, 3.53104, 0
13.6305, 19.042, 1.57957, 0
13.7411, 16.3083, 3.60178, 0
13.0314, 19.6137, 1.72702, 0
13.5156, 19.1729, 4.36086, 0
13.6598, 19.0552, 2.05121, 0
12.6715, 19.8335, 3.95167, 0
12.9947, 19.6065, 1.95414, 0
13.5152, 19.1774, 4.748, 0
13.6344, 19.0197, 4.70318, 0
13.3872, 19.2139, 2.42374, 0
13.6439, 18.9851, 2.1283, 0
7.81464, 19.0654, 3.18046, 0
13.9505, 18.7135, 1.19044, 0
13.7226, 16.3612, 3.23914, 0
7.46591, 19.221, 3.13188, 0
12.9512, 19.6873, 1.63302, 0
13.6562, 19.0502, 2.42597, 0
12.6762, 19.7473, 4.3189, 0
13.2449, 19.3301, 1.30733, 0
13.8491, 18.7503, 4.02086, 0
13.272, 19.3117, 4.93253, 0
13.3942, 19.2239, 1.67574, 0
13.9505, 18.7838, 4.41971, 0
13.7344, 16.3894, 3.94402, 0
7.46363, 19.2151, 3.46637, 0
13.9328, 18.7069, 1.56258, 0
13.6319, 19.0143, 1.20563, 0
12.5719, 20.134, 1.70097, 0
7.87738, 18.976, 3.60366, 0
13.9663, 18.8232, 2.90245, 0
13.6626, 19.059, 1.67719, 0
13.7479, 18.9296, 2.07946, 0
12.901, 20.016, 2.79913, 0
13.8821, 18.6906, 2.67982, 0
7.79158, 19.0715, 3.08288, 0
13.8977, 18.6943, 2.30694, 0
13.9114, 18.6864, 4.57247, 0
12.8104, 20.0017, 1.29808, 0
13.9344, 18.6996, 4.19508, 0
6.42674, 19.7748, 2.83807, 0
12.6017, 20.196, 3.21242, 0
5.85826, 19.508, 2.83001, 0
13.9466, 18.7067, 3.11829, 0
13.7553, 18.9349, 1.70621, 0
12.8406, 19.99, 2.42265, 0
6.71353, 19.7793, 3.48134, 0
13.6255, 18.9546, 4.30339, 0
12.6102, 20.0767, 4.71631, 0
13.6229, 19.018, 3.08133, 0
12.6007, 20.1256, 3.58224, 0
12.5967, 20.1812, 2.45536, 0
6.75309, 19.7904, 3.14692, 0
13.7045, 18.9032, 3.49451, 0
12.8586, 19.964, 4.3116, 0
12.674, 19.9208, 1.30326, 0
13.9459, 18.8078, 4.16541, 0
12.9313, 20.0077, 4.70099, 0
13.7619, 18.9393, 1.33349, 0
12.8596, 20.0109, 1.67049, 0
12.667, 19.7791, 4.70777, 0
12.6464, 19.8405, 3.19347, 0
13.9148, 18.7001, 1.93465, 0
12.9562, 19.6545, 2.38641, 0
0.650547, -17.1248, 5.97685, 0
0.701921, -17.0831, 5.09362, 0
0.721712, -17.0398, 5.37093, 0
1.3929, -17.106, 5.16756, 0
1.43282, -17.1477, 5.77007, 0
0.833413, -17.1288, 5.18356, 0
1.1774, -17.1028, 5.78148, 0
1.17745, -17.1035, 5.48033, 0
1.1779, -17.1101, 5.184, 0
1.36809, -17.2199, 5.26158, 0
0.833163, -17.1237, 5.7817, 0
0.833467, -17.13, 5.48233, 0
0.81276, -17.1485, 5.88441, 0
0.854892, -17.2777, 5.02214, 0
0.602045, -17.2541, 5.1573, 0
-11.5559, -4.76041, 5.65786, 0
-11.3869, 1.6171, 5.71401, 0
-11.3802, 1.56411, 5.94007, 0
-11.2858, 1.32296, 5.4309, 0
-11.4542, 1.19292, 5.7305, 0
-11.383, 1.21812, 5.0351, 0
-11.3103, 0.707929, 5.39674, 0
-11.4739, -4.88278, 5.10724, 0
-11.4726, -4.88221, 5.33919, 0
-11.3074, 0.710938, 5.19434, 0
-11.5075, 0.227041, 5.26752, 0
-11.4703, -4.88124, 5.57381, 0
-11.3984, 0.803912, 5.10924, 0
-11.3887, 0.803226, 5.77167, 0
-11.3856, 0.803007, 5.99934, 0
-11.7596, -4.60875, 5.99896, 0
-11.7114, -4.55243, 5.73446, 0
-11.7095, -4.34332, 5.46681, 0
-11.386, 1.65198, 5.86691, 0
-11.3894, 1.65359, 5.64933, 0
-11.1725, 0.846956, 5.7589, 0
-11.7907, -4.21859, 5.67571, 0
-11.4369, 1.77271, 5.30582, 0
-11.3886, 1.61604, 5.49274, 0
-11.4459, 1.77676, 5.1, 0
-11.395, 0.803673, 5.32679, 0
-11.5067, 0.231505, 5.06567, 0
-11.7457, -4.58335, 5.06607, 0
-11.5139, 0.218026, 5.6806, 0
-11.7201, -4.56171, 5.50808, 0
-11.7958, -4.22915, 5.00554, 0
-11.3214, 0.702047, 5.81125, 0
13.6699, -11.0807, 3.85101, 0
13.4042, -5.29216, 2.95707, 0
13.3741, -14.7366, 3.51508, 0
13.3799, -14.6829, 2.88559, 0
13.2751, -11.5717, 3.5924, 0
13.2301, -11.5062, 2.48488, 0
13.2487, -11.5873, 1.10214, 0
13.5181, -11.2718, 3.02334, 0
13.3273, -5.32649, 1.22623, 0
13.3281, -5.30476, 2.57304, 0
13.3289, -5.29771, 3.02067, 0
13.6816, -11.0875, 4.54771, 0
13.386, -5.14005, 2.92033, 0
13.6535, -10.9706, 4.78029, 0
13.1093, -11.4874, 3.78826, 0
13.1198, -11.508, 3.50609, 0
13.2002, -11.581, 1.53429, 0
13.1646, -11.5275, 2.09509, 0
13.3264, -11.2531, 4.93793, 0
13.3387, -11.2647, 2.93048, 0
13.451, -11.2944, 2.65536, 0
13.2399, -5.60727, 4.71062, 0
13.2973, -5.6368, 3.99616, 0
13.3192, -5.60891, 1.87193, 0
13.3069, -5.60214, 2.10425, 0
13.3315, -5.61566, 1.63951, 0
13.3576, -5.62984, 1.17393, 0
13.3962, -5.26696, 4.46991, 0
13.4114, -5.28202, 2.56916, 0
13.3955, -5.26783, 4.22733, 0
13.6556, -10.9031, 1.00257, 0
13.6535, -10.9008, 1.28378, 0
13.6508, -10.8974, 1.84651, 0
13.3509, -11.1998, 3.50734, 0
13.542, -10.9155, 1.53204, 0
13.5886, -10.906, 2.37944, 0
13.6314, -10.9213, 1.81823, 0
13.4857, -10.8901, 4.36634, 0
13.3407, -11.1873, 1.20616, 0
13.5294, -10.9477, 2.62051, 0
13.5562, -10.9393, 3.76465, 0
13.3585, -11.3229, 4.5645, 0
13.5779, -11.0402, 1.13383, 0
13.3421, -11.3202, 1.01917, 0
13.3528, -5.25943, 3.98492, 0
13.4203, -5.23867, 2.18814, 0
13.3921, -11.3425, 1.1367, 0
13.1792, -11.5514, 1.81488, 0
13.438, -11.3357, 1.8196, 0
13.402, -11.3053, 4.69809, 0
13.4405, -11.3378, 1.53839, 0
13.3946, -5.22863, 3.85283, 0
13.3606, -5.26324, 3.26033, 0
13.5811, -11.0121, 2.99568, 0
13.5723, -10.9894, 2.36962, 0
13.3403, -5.25399, 4.47558, 0
13.3823, -5.22383, 4.84476, 0
13.3455, -5.28369, 1.78175, 0
13.4337, -5.24391, 1.26167, 0
13.5682, -10.986, 2.65164, 0
13.4177, -11.3185, 3.52791, 0
13.4282, -5.24174, 1.72352, 0
13.403, -5.2319, 3.36984, 0
13.5442, -10.9666, 4.66962, 0
13.3485, -11.3367, 1.86154, 0
13.5687, -8.5198, 3.34425, 0
13.3443, -5.25582, 4.22849, 0
13.3862, -5.22536, 4.59357, 0
13.3487, -5.28502, 1.5505, 0
13.5761, -10.9925, 2.08861, 0
13.3675, -11.3275, 3.39787, 0
13.4318, -5.24315, 1.49236, 0
13.3895, -5.22663, 4.34458, 0
13.5284, -11.0064, 3.96026, 0
13.5798, -10.9954, 1.80847, 0
13.4118, -11.3136, 3.81697, 0
13.4088, -11.3111, 4.10867, 0
13.416, -5.23697, 2.4218, 0
13.3761, -5.27031, 2.31728, 0
13.582, -10.9972, 1.52895, 0
13.5493, -10.9708, 4.08326, 0
13.3416, -11.3235, 1.29888, 0
13.434, -11.3323, 2.10139, 0
13.3959, -5.27926, 1.16139, 0
13.402, -5.3258, 4.80693, 0
13.3854, -5.27443, 1.85281, 0
13.3876, -5.27554, 1.62152, 0
13.5469, -10.9688, 4.37537, 0
13.343, -11.3284, 1.57948, 0
13.4297, -11.3286, 2.38403, 0
13.4588, -4.96619, 2.71578, 0
13.5566, -14.5231, 3.54785, 0
13.328, -11.2563, 4.60344, 0
13.3128, -5.27005, 3.91156, 0
13.3003, -5.26485, 4.651, 0
13.2278, -11.4913, 2.75955, 0
13.3332, -5.27858, 2.48009, 0
13.3367, -5.28003, 2.24626, 0
13.3178, -5.27217, 3.42763, 0
13.4014, -5.23127, 3.61114, 0
13.3851, -5.30602, 2.00702, 0
13.3132, -5.27027, 3.6681, 0
13.2826, -11.2349, 4.1305, 0
13.2873, -11.2312, 3.55093, 0
13.2767, -11.2376, 4.71823, 0
13.2816, -11.2379, 4.42387, 0
13.3081, -5.06506, 1.29894, 0
13.3009, -5.06598, 1.7572, 0
13.2917, -5.06612, 2.21789, 0
13.2879, -5.06651, 2.44965, 0
13.6846, -10.9691, 2.21411, 0
13.2907, -5.23342, 3.88692, 0
13.7452, -11.0015, 1.65036, 0
13.2945, -5.23288, 3.64556, 0
13.6678, -11.1134, 2.56347, 0
13.2825, -5.23647, 4.6238, 0
13.7034, -10.9969, 1.36998, 0
13.2942, -5.23073, 3.40494, 0
13.4903, -10.9439, 4.88889, 0
13.3388, -11.1885, 1.66454, 0
13.3239, -11.1805, 2.29422, 0
13.3557, -5.2608, 3.7416, 0
13.3164, -11.21, 3.43137, 0
13.2738, -5.22855, 4.66568, 0
13.2725, -5.2185, 4.17246, 0
13.2866, -11.2344, 3.8402, 0
13.3068, -5.23256, 1.58048, 0
13.2399, -5.56443, 3.50401, 0
13.5582, -10.9494, 4.24102, 0
13.343, -11.2163, 2.22729, 0
13.2728, -5.05982, 2.63372, 0
13.2658, -5.06828, 3.10166, 0
13.6773, -10.9774, 4.20487, 0
13.3488, -11.1322, 1.52348, 0
-31.1175, 38.9606, 1.17498, 0
-31.7436, 36.7812, 1.00297, 0
13.1075, 13.4191, 5.95722, 0
13.1341, 13.4997, 5.09645, 0
13.3245, 7.49979, 5.32056, 0
12.8867, 14.0888, 5.89125, 0
13.782, 12.7295, 5.02183, 0
13.4262, 13.0199, 5.06926, 0
13.755, 12.7162, 5.33418, 0
13.2042, 13.9306, 5.56277, 0
13.2398, 8.20819, 5.17849, 0
13.5478, 12.9047, 5.65545, 0
13.2368, 7.99118, 5.65662, 0
13.2906, 7.4886, 5.83496, 0
13.3512, 13.1513, 5.66462, 0
13.3554, 13.1553, 5.02309, 0
13.3167, 13.2209, 5.30466, 0
13.6724, 12.822, 5.08307, 0
13.7148, 12.7026, 5.97073, 0
13.3463, 13.1464, 5.98852, 0
13.1406, 13.905, 5.23582, 0
13.3515, 13.1515, 5.34171, 0
13.4978, 7.1473, 5.01802, 0
13.6572, 12.8142, 5.72271, 0
13.3418, 7.10797, 5.09814, 0
13.6088, 6.84519, 5.68177, 0
13.6188, 6.85022, 5.14115, 0
13.6057, 6.84359, 5.95737, 0
13.3985, 7.89319, 5.93397, 0
13.3943, 7.8977, 5.14429, 0
13.6963, 12.6262, 5.76449, 0
13.4804, 7.90462, 5.68737, 0
13.2913, 7.30106, 5.46503, 0
13.6744, 6.81578, 5.7456, 0
13.3189, 6.98973, 5.67059, 0
13.5502, 6.67824, 5.77927, 0
13.3338, 7.00758, 5.41331, 0
13.5703, 6.68129, 5.51305, 0
13.3037, 6.97167, 5.92957, 0
13.6669, 12.82, 5.40237, 0
13.5513, 12.908, 5.33433, 0
13.4462, 7.19581, 5.72811, 0
13.4734, 7.12384, 5.25659, 0
13.1086, 13.5256, 5.78627, 0
13.1463, 13.5298, 5.47318, 0
13.6112, 6.84637, 5.40897, 0
13.5898, 6.68408, 5.24898, 0
13.4024, 0.645357, 5.74329, 0
13.3145, 1.0711, 4.96627, 0
13.325, 1.09091, 5.92861, 0
13.3261, 1.00387, 5.49047, 0
13.4103, 0.810304, 5.75309, 0
13.4808, -4.90091, 5.09228, 0
13.2936, 0.693699, 5.68968, 0
13.3374, 0.702077, 5.15503, 0
13.669, 2.30207, 5.60196, 0
13.3168, 0.746179, 5.42321, 0
13.4757, -4.89908, 5.34803, 0
13.4252, 0.313744, 5.02554, 0
13.294, 0.689205, 5.93431, 0
13.4155, 0.810617, 5.25721, 0
13.3812, 0.684659, 5.01926, 0
13.4167, 0.810694, 5.01331, 0
13.6888, 2.32157, 5.13437, 0
13.3862, 1.12467, 5.25465, 0
13.4767, -4.89943, 5.60916, 0
13.4233, 1.08501, 5.13956, 0
13.4233, 1.08724, 5.63545, 0
13.3216, 0.897072, 5.0966, 0
13.3103, 0.898454, 5.58351, 0
13.4697, -4.8969, 5.87012, 0
13.3804, 0.643007, 5.37479, 0
-31.3628, 31.6585, 1.14243, 0
-31.3826, 33.6421, 1.14853, 0
-11.7656, -10.8714, 5.75681, 0
-11.3403, -5.55482, 5.90689, 0
-11.2483, -11.3137, 5.20881, 0
-11.3379, -11.2433, 5.10422, 0
-11.6592, -10.831, 5.46844, 0
-11.1823, -11.1331, 5.95806, 0
-11.719, -10.8505, 4.95174, 0
-11.3092, -5.08689, 5.91985, 0
-11.3169, -5.09485, 5.44888, 0
-11.3137, -5.09116, 5.68305, 0
-11.3827, -5.58492, 5.69156, 0
-11.2834, -5.7435, 5.02073, 0
-11.316, -11.269, 5.6123, 0
-11.3211, -11.282, 5.05384, 0
-11.3191, -5.09802, 5.21731, 0
-11.3321, -11.2375, 5.95249, 0
-11.2059, -5.67247, 5.87777, 0
-11.3364, -11.2419, 5.38424, 0
-11.3188, -11.2758, 5.33182, 0
-11.0148, -11.626, 5.80068, 0
-11.3346, -11.24, 5.66696, 0
-11.1773, -5.19581, 5.0401, 0
-11.2106, -5.67099, 5.65261, 0
-11.2036, -11.2015, 5.70004, 0
-11.4162, -10.9132, 5.17626, 0
-11.2217, -5.69007, 4.97777, 0
-11.1885, -11.158, 5.41912, 0
-11.2143, -5.66907, 5.42971, 0
-11.3126, -11.2615, 5.89539, 0
-11.2835, -5.35629, 5.60297, 0
-11.3169, -5.30024, 5.14193, 0
-11.5982, -10.9737, 5.10404, 0
-11.5963, -10.9719, 5.38383, 0
-11.1129, -11.5466, 5.53441, 0
-11.1065, -11.5239, 5.80577, 0
-11.0289, -11.6539, 5.26031, 0
-11.0388, -11.6708, 4.99425, 0
-11.2057, -5.52488, 5.18504, 0
-11.5532, -5.06941, 5.76949, 0
-11.1787, -5.50413, 5.37794, 0
-11.1759, -5.47727, 5.81496, 0
-11.3465, -5.35991, 5.41895, 0
-11.4904, -10.9391, 5.46677, 0
-11.3984, -10.9039, 5.98318, 0
-11.1818, -5.20505, 5.91883, 0
-11.1682, -5.18503, 5.68931, 0
-11.5938, -10.9696, 5.66629, 0
-4.46686, -17.3056, 3.75629, 0
0.806035, -17.2947, 2.00614, 0
1.20267, -17.257, 3.39591, 0
0.584015, -17.3045, 2.94615, 0
0.631386, -17.1782, 3.76115, 0
0.640501, -17.1578, 4.86195, 0
-4.43043, -17.3459, 3.24163, 0
0.87603, -17.2502, 2.25055, 0
1.19868, -17.1903, 2.74479, 0
-4.5674, -17.3187, 3.52361, 0
0.863486, -17.2561, 4.44262, 0
1.01923, -17.1216, 3.36356, 0
1.19637, -17.2715, 2.29901, 0
0.741233, -17.0676, 3.39036, 0
0.850668, -17.182, 1.59602, 0
0.623117, -17.2084, 2.66791, 0
1.40499, -17.1244, 4.8825, 0
1.4304, -17.1755, 4.31993, 0
0.835457, -17.1709, 2.61108, 0
0.835725, -17.1764, 2.33342, 0
0.630879, -17.2072, 1.84681, 0
1.44483, -17.2191, 4.04374, 0
0.61481, -17.2314, 1.57241, 0
1.38913, -17.1288, 3.741, 0
0.835976, -17.1815, 2.05673, 0
0.836578, -17.1939, 1.23119, 0
0.607207, -17.2401, 2.39519, 0
1.23039, -17.2829, 1.62531, 0
1.35372, -17.1801, 4.37621, 0
-4.53049, -17.1469, 3.34252, 0
1.1792, -17.129, 4.02132, 0
1.181, -17.155, 2.33328, 0
0.862047, -17.2747, 1.91354, 0
1.17829, -17.1157, 4.89003, 0
0.834584, -17.1529, 3.7358, 0
-4.69718, -17.2263, 3.55688, 0
0.828401, -17.1625, 4.11622, 0
1.18194, -17.1687, 1.50562, 0
1.17893, -17.1251, 4.3088, 0
1.03348, -17.2703, 1.24108, 0
0.868504, -17.2748, 1.63317, 0
1.17863, -17.1207, 4.59833, 0
1.20653, -17.1496, 3.22248, 0
0.582695, -17.2944, 1.01849, 0
-4.6666, -17.2332, 3.41681, 0
0.834447, -17.1501, 4.02153, 0
1.18227, -17.1735, 1.23118, 0
0.833649, -17.1337, 4.88937, 0
1.18138, -17.1606, 2.05666, 0
0.834134, -17.1437, 4.59906, 0
1.18159, -17.1636, 1.78064, 0
1.17945, -17.1325, 3.73577, 0
0.850618, -17.1921, 1.8197, 0
1.30948, -17.1768, 3.1232, 0
1.04227, -17.2738, 2.62472, 0
-4.26416, -17.2367, 2.77359, 0
0.746819, -17.1191, 1.18551, 0
1.3608, -17.2219, 3.24627, 0
0.975993, -17.2347, 2.94206, 0
1.39525, -17.1686, 2.07644, 0
1.36596, -17.1528, 1.25038, 0
0.801629, -17.3123, 3.37901, 0
-4.78686, -17.4394, 2.79641, 0
0.70879, -17.123, 3.67995, 0
1.39498, -17.0974, 1.4673, 0
1.39005, -17.0906, 1.74096, 0
1.38022, -17.0776, 2.28911, 0
1.0941, -17.2503, 2.10028, 0
-11.3448, -17.161, 1.96063, 0
-5.18357, -17.2444, 2.92038, 0
-11.5068, -17.009, 1.30723, 0
-11.256, -17.1665, 1.60978, 0
-11.2466, -17.2288, 1.27826, 0
-5.41086, -17.1496, 3.15442, 0
-5.43691, -17.1536, 2.86669, 0
-10.886, -17.6214, 4.47769, 0
-11.3341, -17.3834, 3.3961, 0
-10.9105, -17.6572, 2.48483, 0
-11.5918, -17.2533, 2.42534, 0
-10.9582, -17.6544, 1.62922, 0
-10.9011, -17.7094, 4.28994, 0
-11.5174, -17.1853, 4.29004, 0
-11.623, -17.2633, 2.55109, 0
-11.0417, -17.5849, 1.76186, 0
-11.049, -17.6538, 1.10726, 0
-11.0368, -17.6495, 2.42858, 0
-11.0251, -17.6441, 3.76398, 0
-11.0099, -17.5605, 4.42492, 0
-11.331, -17.139, 3.61256, 0
-5.19967, -17.3985, 3.30732, 0
-11.5416, -17.1548, 3.42, 0
-5.1852, -17.4028, 3.01434, 0
-10.9266, -17.6807, 1.17039, 0
-11.3206, -17.3468, 2.12818, 0
-10.901, -17.6453, 2.23086, 0
-11.3158, -17.3205, 3.12528, 0
-11.671, -17.1154, 1.48163, 0
-10.8986, -17.6399, 3.47638, 0
-11.3452, -17.252, 4.49172, 0
-10.8949, -17.6346, 3.80896, 0
-11.3058, -17.2732, 4.81546, 0
-10.9348, -17.691, 2.95099, 0
-11.3525, -17.2631, 3.81241, 0
-10.9157, -17.6091, 1.57544, 0
-11.3623, -17.2779, 2.4725, 0
-11.6743, -17.1201, 1.15193, 0
-10.9276, -17.665, 3.28006, 0
-11.3473, -17.2552, 4.15052, 0
-11.3543, -17.2658, 3.47493, 0
-5.20309, -17.2418, 3.21536, 0
-11.2447, -17.1887, 3.58751, 0
-11.8727, -17.0146, 2.1114, 0
-11.2413, -17.1558, 4.25215, 0
-11.3748, -17.2969, 1.15083, 0
-11.1024, -17.5632, 4.33672, 0
-11.3682, -17.2869, 1.81013, 0
-10.9186, -17.6689, 1.82709, 0
-11.3164, -17.3278, 2.79157, 0
-11.5813, -17.2868, 1.72793, 0
-11.343, -17.2486, 4.83511, 0
-11.3716, -17.2921, 1.48022, 0
-11.8091, -16.9372, 4.76629, 0
-11.2342, -17.487, 4.09207, 0
-11.2979, -17.5569, 1.62652, 0
-11.2166, -17.4371, 4.42369, 0
-5.44514, -17.2954, 2.79072, 0
-11.2292, -17.482, 2.07177, 0
-11.8048, -16.9565, 3.76747, 0
-5.39749, -17.2945, 3.45798, 0
-11.2187, -17.4007, 3.06229, 0
-11.6063, -17.1633, 3.38816, 0
-5.4667, -17.257, 3.04402, 0
-11.222, -17.4492, 2.40072, 0
-11.6434, -17.0749, 4.49582, 0
-11.2186, -17.3571, 3.72829, 0
-11.6457, -17.0782, 4.15434, 0
-11.2196, -17.3806, 3.39505, 0
-11.5807, -17.2261, 3.63249, 0
-5.46551, -17.2532, 3.33945, 0
-11.2191, -17.423, 2.73088, 0
-11.6614, -17.1012, 2.47484, 0
-11.2294, -17.3975, 1.4026, 0
-11.6118, -17.1605, 2.12518, 0
-11.2288, -17.4179, 1.07459, 0
-11.6594, -17.0983, 2.80813, 0
-11.2315, -17.3795, 1.73098, 0
-11.4973, -17.2219, 2.71645, 0
-11.4857, -17.2252, 2.38354, 0
-5.0683, -17.3008, 2.77826, 0
-11.5125, -17.2238, 3.05174, 0
-11.3987, -17.1928, 3.95855, 0
-5.23042, -17.357, 3.49446, 0
-11.0927, -17.5146, 4.66911, 0
-11.7734, -16.9438, 4.09672, 0
-11.2489, -17.1466, 3.25462, 0
-11.6411, -17.0714, 4.83948, 0
-11.1035, -17.4695, 3.97862, 0
-11.1281, -17.6062, 2.99, 0
-11.1203, -17.5612, 1.98356, 0
-11.6674, -17.1101, 1.81185, 0
-11.4621, -17.1866, 4.39507, 0
-11.5575, -17.2717, 1.39522, 0
0.878415, 19.1538, 2.90001, 0
0.548328, 19.0846, 4.20683, 0
0.593699, 19.203, 3.24415, 0
0.577814, 19.173, 3.55407, 0
0.562063, 19.1413, 3.86378, 0
0.548614, 19.3465, 2.69185, 0
1.32368, 19.1026, 3.24804, 0
0.577179, 19.363, 4.23762, 0
0.207837, 19.3484, 1.19771, 0
0.260352, 19.2707, 4.25457, 0
1.56535, 19.0613, 2.78923, 0
0.232104, 19.1969, 2.99095, 0
1.67175, 19.0184, 4.08016, 0
1.74131, 19.1576, 1.3281, 0
0.264227, 19.1519, 3.6012, 0
1.65665, 18.9927, 4.70159, 0
1.64533, 18.9948, 4.07674, 0
1.67815, 19.0726, 1.92738, 0
1.69508, 19.1165, 1.62484, 0
0.576, 19.3437, 4.86256, 0
1.34449, 19.0185, 3.75078, 0
0.229246, 19.3349, 4.58064, 0
0.259755, 19.2877, 4.88338, 0
1.58745, 19.0366, 4.37891, 0
0.543431, 19.3001, 4.5435, 0
1.32101, 19.0452, 3.47411, 0
0.176464, 19.4643, 1.50718, 0
-4.30846, 19.2771, 3.26901, 0
0.519575, 19.333, 1.77656, 0
1.56641, 19.08, 4.04294, 0
1.31599, 19.0326, 4.1015, 0
-4.56267, 19.3585, 3.59702, 0
0.805383, 19.205, 1.06855, 0
0.513576, 19.1687, 2.36949, 0
1.55583, 19.055, 4.35519, 0
1.70881, 19.0797, 2.54551, 0
-4.31217, 19.3046, 3.07465, 0
0.488687, 19.316, 1.47442, 0
1.57764, 19.1131, 3.73349, 0
0.87297, 19.1241, 3.21048, 0
0.550871, 19.3615, 2.07994, 0
1.33883, 19.0969, 1.32028, 0
1.00217, 19.0942, 3.79199, 0
1.19007, 19.1613, 2.60501, 0
0.246701, 19.1812, 2.67882, 0
1.66021, 19.0161, 3.76901, 0
1.1878, 19.1247, 4.80981, 0
0.235871, 19.3335, 2.11003, 0
1.18863, 19.138, 4.17124, 0
1.19027, 19.1645, 2.29581, 0
0.22988, 19.2132, 1.75837, 0
1.18883, 19.1413, 3.85434, 0
-4.79383, 19.1499, 3.02727, 0
0.803773, 19.1666, 3.5397, 0
0.583544, 19.4304, 2.38688, 0
1.19121, 19.1796, 1.37439, 0
0.581133, 19.4082, 3.00139, 0
1.19064, 19.1704, 1.98796, 0
1.5086, 19.0112, 3.87295, 0
0.802875, 19.1452, 4.80993, 0
0.206006, 19.376, 1.80892, 0
0.521786, 19.1572, 2.05836, 0
1.56521, 19.1135, 4.21316, 0
0.805174, 19.2, 1.37442, 0
1.31343, 19.0259, 4.41792, 0
1.19098, 19.1759, 1.68091, 0
1.5456, 19.0346, 4.66996, 0
1.6354, 19.028, 1.31372, 0
0.804735, 19.1895, 1.98787, 0
0.1998, 19.3501, 3.65097, 0
1.69031, 19.0687, 4.72462, 0
0.804387, 19.1813, 2.60499, 0
1.64977, 19.0475, 1.01087, 0
0.804959, 19.1949, 1.68081, 0
1.31082, 19.0186, 4.73632, 0
1.18903, 19.1446, 3.53933, 0
0.803364, 19.1568, 4.17098, 0
1.51444, 19.0182, 3.39964, 0
1.5831, 19.1526, 1.25714, 0
1.56443, 19.1579, 1.72456, 0
1.66268, 19.043, 2.23032, 0
1.18478, 19.1447, 2.93649, 0
1.52585, 19.0328, 3.56444, 0
0.803013, 19.1485, 4.48877, 0
1.50814, 19.0679, 1.40911, 0
-4.89867, 19.4119, 2.67009, 0
1.52687, 19.0727, 2.32964, 0
0.610513, 19.2516, 2.93531, 0
1.26269, 19.0445, 2.1846, 0
0.574615, 19.2337, 1.08661, 0
1.54351, 19.0597, 3.25776, 0
1.67605, 19.0473, 3.46361, 0
1.18806, 19.1289, 4.48887, 0
-4.93122, 19.3535, 3.19157, 0
1.59681, 19.0921, 3.13582, 0
0.8045, 19.1839, 2.29574, 0
1.54902, 19.0495, 1.59191, 0
1.58112, 19.0686, 2.20676, 0
-11.5271, -17.1972, 5.79332, 0
-11.2078, -17.3563, 5.44408, 0
-10.8854, -17.6542, 4.95777, 0
-11.2016, -17.4962, 5.6441, 0
-11.208, -17.3791, 5.10095, 0
-11.6323, -17.0586, 5.88504, 0
-11.3406, -17.2449, 5.18083, 0
-11.3347, -17.236, 5.87987, 0
-11.3044, -17.2646, 5.15976, 0
-11.6385, -17.0676, 5.18548, 0
-11.3378, -17.2407, 5.52904, 0
-10.8724, -17.6021, 5.83805, 0
-11.3028, -17.2555, 5.50639, 0
-10.8821, -17.6343, 5.29554, 0
-11.3366, -17.2926, 5.67863, 0
-11.0129, -17.635, 5.124, 0
-10.875, -17.5929, 5.97627, 0
-11.6631, -17.1725, 5.74112, 0
-11.6356, -17.0634, 5.53395, 0
-11.247, -17.1875, 5.26919, 0
-11.2449, -17.1089, 5.60052, 0
-11.2393, -17.1502, 5.94849, 0
-11.858, -16.9491, 5.44463, 0
-11.7763, -16.9229, 5.09658, 0
-11.8141, -16.9195, 5.77442, 0
-11.5817, -4.97459, 4.58674, 0
-11.6025, -11.0571, 3.98419, 0
-11.5389, -14.5641, 3.30064, 0
-11.7805, -10.8889, 4.69966, 0
-11.6726, -10.8473, 4.42293, 0
-11.7791, -10.8925, 3.656, 0
-11.7307, -10.8658, 3.91057, 0
-11.7877, -10.9055, 2.62148, 0
-11.7421, -10.8812, 2.8783, 0
-11.7983, -10.92, 1.58573, 0
-11.4926, -11.1667, 2.86239, 0
-11.7116, -14.3548, 3.70996, 0
-11.7179, -14.3134, 3.11489, 0
-11.7147, -14.334, 3.41198, 0
-11.3547, -5.1401, 2.97333, 0
-11.2092, -5.11001, 2.91838, 0
-11.2095, -5.3371, 2.32, 0
-11.4507, -11.1224, 3.83433, 0
-11.3789, -11.0876, 3.56276, 0
-11.1472, -11.3722, 2.50043, 0
-11.1253, -11.346, 1.99049, 0
-11.1649, -5.04844, 4.18859, 0
-11.2023, -5.22304, 3.79263, 0
-11.2122, -5.19615, 1.79541, 0
-11.221, -5.21253, 1.99252, 0
-11.2349, -5.22799, 1.40148, 0
-11.4353, -10.9367, 2.32917, 0
-11.4165, -10.9398, 1.82107, 0
-11.4947, -10.9649, 1.31951, 0
-11.4486, -10.9455, 1.57059, 0
-11.7232, -10.8862, 2.10495, 0
-11.197, -11.186, 4.88863, 0
-11.7536, -10.8967, 1.84653, 0
-11.1886, -11.1499, 4.61846, 0
-11.189, -11.1166, 3.57526, 0
-11.7089, -10.8949, 1.3303, 0
-11.1887, -11.1431, 3.83464, 0
-11.2114, -11.1872, 3.3245, 0
-11.2053, -11.1489, 2.30276, 0
-11.2349, -11.2487, 1.54211, 0
-11.5656, -5.06053, 2.3912, 0
-11.2084, -5.65363, 4.33359, 0
-11.3256, -5.10527, 4.76382, 0
-11.357, -5.26484, 3.91189, 0
-11.3595, -5.26807, 3.69633, 0
-11.4015, -5.31131, 1.22315, 0
-11.3904, -5.30038, 1.82771, 0
-11.3669, -5.2756, 3.27146, 0
-11.2226, -5.37327, 3.92085, 0
-11.6315, -4.99934, 1.2277, 0
-11.3504, -5.25761, 4.34864, 0
-11.3866, -5.29664, 2.03061, 0
-11.3978, -5.30769, 1.42407, 0
-11.3481, -5.08038, 3.66872, 0
-11.1306, -11.5517, 4.44897, 0
-11.5766, -11.0475, 2.37892, 0
-11.2094, -11.4919, 1.41883, 0
-11.5878, -11.0249, 4.77604, 0
-11.5847, -11.0257, 4.50081, 0
-11.4007, -5.21707, 1.09691, 0
-11.2074, -11.6905, 2.12123, 0
-11.1865, -11.4814, 3.48678, 0
-11.3856, -5.21015, 2.10552, 0
-11.3533, -11.2586, 4.0135, 0
-11.354, -5.19571, 4.43281, 0
-11.3742, -11.2793, 1.91526, 0
-11.3836, -11.2887, 1.14662, 0
-11.3443, -11.2497, 4.55377, 0
-11.4106, -10.9217, 3.86088, 0
-11.3969, -10.9141, 4.641, 0
-11.199, -11.6626, 1.09483, 0
-11.631, -8.36367, 2.91341, 0
-11.3715, -11.2767, 2.17305, 0
-11.3811, -11.2861, 1.40229, 0
-11.3438, -11.2491, 4.82889, 0
-11.3947, -5.21429, 1.49827, 0
-11.1143, -11.7354, 2.38976, 0
-11.3601, -11.2653, 3.21535, 0
-11.2315, -11.5567, 1.93855, 0
-11.3831, -5.209, 2.30986, 0
-11.0694, -11.6635, 3.40977, 0
-11.3491, -11.2544, 4.28269, 0
-11.2254, -5.34445, 1.13958, 0
-11.2125, -11.5485, 4.03538, 0
-11.646, -11.019, 1.14668, 0
-11.2145, -5.67637, 4.75979, 0
-11.3575, -5.19731, 3.99269, 0
-11.5376, -14.5563, 3.59988, 0
-11.1713, -11.6555, 4.74684, 0
-11.6294, -11.0032, 2.69217, 0
-11.3229, -11.2878, 4.77828, 0
-11.1862, -11.4848, 4.55864, 0
-11.6378, -11.0112, 1.91558, 0
-11.3288, -11.2976, 4.50674, 0
-11.1949, -11.512, 4.29483, 0
-11.6432, -11.0163, 1.40234, 0
-11.356, -5.19662, 4.21169, 0
-11.5595, -5.40162, 1.13558, 0
-11.6263, -11.0003, 2.95332, 0
-11.388, -5.21127, 1.90217, 0
-11.3568, -11.2621, 3.4793, 0
-11.6108, -10.9856, 4.28295, 0
-11.1935, -11.5063, 3.2285, 0
-11.3524, -5.24853, 2.6526, 0
-11.1685, -11.6372, 3.67258, 0
-11.3677, -5.20195, 3.34973, 0
-11.1381, -11.5748, 4.18756, 0
-11.1812, -11.4614, 4.82539, 0
-11.635, -11.0086, 2.17342, 0
-11.2137, -11.5134, 1.16552, 0
-11.4555, -10.9247, 4.91966, 0
-11.1711, -11.6043, 1.60055, 0
-11.2867, -11.3656, 2.26337, 0
-11.5071, -11.1264, 4.09237, 0
-11.4454, -10.9297, 3.60866, 0
-11.5052, -11.1471, 1.99514, 0
-11.5251, -11.1428, 2.51282, 0
-11.5345, -11.14, 2.77361, 0
-11.4876, -11.1534, 1.48238, 0
-11.4945, -11.1484, 1.73799, 0
-11.4194, -5.36624, 4.79172, 0
-11.3733, -5.57411, 3.45115, 0
-11.4041, -5.44337, 3.1033, 0
-11.3904, -5.41563, 2.26573, 0
-11.5843, -5.09053, 3.95472, 0
-11.4551, -11.2647, 2.9514, 0
-11.6202, -8.33441, 3.60778, 0
-11.4366, -11.2631, 2.68917, 0
-11.3922, -5.58486, 2.20609, 0
-11.369, -5.56536, 1.19044, 0
-11.2459, -5.51224, 3.30444, 0
-11.2982, -5.36093, 4.477, 0
-11.3448, -5.31106, 2.78416, 0
-11.5796, -5.23935, 2.81569, 0
-11.2309, -5.51899, 4.12421, 0
-11.5768, -5.24373, 1.38284, 0
-11.149, -11.6015, 3.9284, 0
-11.2873, -5.70217, 2.51555, 0
-11.2949, -5.69229, 1.71903, 0
-11.627, -5.1184, 2.06486, 0
-11.2168, -5.52292, 4.75514, 0
-11.2799, -5.73043, 4.37005, 0
-11.6232, -4.99765, 1.02486, 0
-11.2373, -5.51499, 3.71119, 0
-11.2766, -5.72499, 4.15671, 0
-11.2821, -5.71348, 3.32583, 0
-11.5957, -5.11037, 1.85548, 0
