X,Y,Z,I,
-10.6966, 19.8137, 4.06331, 0
-11.8721, 16.1386, 3.68609, 0
-11.7653, 19.0012, 3.16632, 0
-12.1437, 18.7552, 2.3309, 0
-5.91784, 19.1401, 3.52931, 0
-10.804, 19.5142, 3.69934, 0
-12.1782, 18.7526, 3.80461, 0
-10.9361, 19.4784, 2.24767, 0
-6.16707, 19.12, 3.62216, 0
-12.2332, 18.7902, 2.36566, 0
-6.20393, 19.1244, 3.30699, 0
-12.2158, 18.7844, 2.00245, 0
-11.7685, 13.0681, 5.59984, 0
-11.3899, 13.0401, 5.5954, 0
-11.5647, 6.836, 5.79995, 0
-11.4845, 6.71126, 5.72917, 0
-11.8305, 12.7422, 5.24488, 0
-11.7892, 12.729, 5.80503, 0
-11.5623, 6.87199, 5.34301, 0
-11.5648, 6.87198, 5.12214, 0
-11.4161, 6.68046, 5.47747, 0
-11.687, 6.61454, 5.31584, 0
-11.6762, 12.7997, 5.98017, 0
-11.1979, 7.4185, 5.63038, 0
-11.2052, 7.426, 5.38678, 0
-11.1886, 7.20036, 5.82446, 0
-11.0632, 13.3731, 5.16424, 0
-11.4705, 6.70116, 4.98626, 0
-11.0572, 13.3581, 5.45958, 0
-11.0568, 13.35, 5.76029, 0
-11.8727, 12.6566, 5.26573, 0
-11.1458, 7.68455, 5.07705, 0
-11.3151, 13.0987, 5.83741, 0
-11.3208, 13.1053, 5.53594, 0
-11.6455, 12.9454, 4.96312, 0
-11.33, 7.32753, 5.38036, 0
-11.3258, 13.1111, 5.23689, 0
-11.3426, 7.32594, 5.62046, 0
-11.3587, 7.32654, 5.86517, 0
-11.6407, 12.94, 5.26106, 0
-11.1425, 7.33809, 5.44718, 0
-11.2083, 7.23635, 5.92198, 0
-11.6406, 12.9399, 5.56386, 0
-12.0223, 12.6653, 5.1732, 0
-11.1854, 13.3036, 5.38359, 0
-11.369, 7.17887, 4.99689, 0
-11.2074, 7.26935, 5.21037, 0
-11.9285, 12.621, 5.72169, 0
-11.2394, 13.1903, 5.96415, 0
-11.2119, 7.433, 5.14558, 0
-11.0348, 13.3866, 5.98651, 0
-11.0392, 13.4147, 5.69517, 0
-11.2125, 7.67227, 5.42825, 0
-10.9392, 13.5892, 5.18491, 0
-10.9402, 13.5732, 5.47429, 0
-11.4387, 7.45433, 5.10187, 0
-11.4508, 7.45898, 5.33676, 0
-11.8217, 12.6381, 5.45936, 0
-11.4961, 6.94073, 5.46159, 0
-11.3272, 7.42314, 5.76548, 0
-11.4742, 12.8751, 5.10775, 0
-11.4036, 12.8947, 5.32402, 0
-10.9058, 13.6174, 5.69139, 0
-11.6491, 6.59963, 5.0153, 0
-11.5942, 6.59418, 5.67154, 0
-11.4381, 6.86349, 5.66334, 0
-11.4839, 6.92391, 5.23272, 0
13.6728, 0.830059, 3.32249, 0
13.6668, 0.832228, 4.55235, 0
13.6694, 0.769978, 4.78905, 0
13.5753, -4.92184, 3.00412, 0
13.6578, -4.90974, 4.65462, 0
13.6107, 3.59958, 3.69701, 0
13.5795, 4.11667, 2.59364, 0
13.6515, -1.51635, 2.87801, 0
13.5542, 0.810509, 3.09303, 0
13.6405, 4.11009, 2.89422, 0
13.6073, -4.93993, 3.42491, 0
13.6079, -2.37003, 2.64138, 0
13.582, 3.47373, 2.70741, 0
13.5734, 4.44448, 3.29415, 0
13.5782, 4.45687, 2.63519, 0
13.5606, -2.45316, 3.18463, 0
13.5607, -2.45245, 2.97114, 0
13.5204, 3.54197, 2.91329, 0
13.5821, 1.43993, 4.76152, 0
13.5942, 1.42996, 3.28092, 0
13.5815, 1.41255, 2.85809, 0
13.578, 1.40416, 2.64598, 0
13.5137, 4.50145, 2.88141, 0
13.6165, 4.7154, 3.33549, 0
13.6084, 4.72521, 3.78295, 0
13.5652, -2.83508, 2.86336, 0
13.5432, 0.41133, 2.26276, 0
13.6714, -4.91744, 4.59663, 0
13.5222, 0.438906, 2.8997, 0
13.679, -4.90726, 2.73121, 0
13.6639, -4.92058, 2.1463, 0
13.5851, -1.91542, 3.02672, 0
13.7201, 0.870409, 2.33884, 0
13.5991, 1.24056, 2.7596, 0
13.6115, 1.25044, 2.97411, 0
13.6824, 1.27688, 2.32027, 0
13.5643, -2.9215, 3.33466, 0
13.6309, -1.57688, 3.02863, 0
13.4098, 0.735783, 2.0892, 0
13.6429, -1.52301, 3.30063, 0
13.3122, 0.873532, 2.95344, 0
13.3144, 0.871502, 2.73205, 0
13.2786, 0.889341, 4.7827, 0
13.6981, -4.92089, 2.36813, 0
13.5874, -1.90362, 3.23974, 0
13.4849, -4.90241, 4.83891, 0
13.4989, -4.9075, 4.09395, 0
13.5238, -4.91654, 2.18559, 0
13.5228, -4.91618, 2.41958, 0
13.4405, 1.12923, 2.0486, 0
13.5574, -1.73115, 2.76548, 0
13.402, 1.126, 4.53565, 0
13.3828, 0.701569, 4.75716, 0
13.4623, 0.813444, 2.26792, 0
13.561, -2.22543, 2.76017, 0
13.2997, 0.879328, 3.6253, 0
13.4109, 1.12675, 3.83596, 0
13.6255, 3.75582, 3.81889, 0
13.2965, 0.881358, 3.85293, 0
13.4013, 1.12594, 4.29904, 0
13.3533, 0.695097, 4.46162, 0
13.4645, 0.813579, 2.04878, 0
13.3052, 0.875269, 3.17518, 0
13.5191, 3.545, 3.34735, 0
13.6541, 0.670833, 2.51709, 0
13.4148, 1.12707, 3.60714, 0
13.4351, 1.12878, 2.26719, 0
13.6353, -2.15423, 3.56353, 0
13.2841, 0.887379, 4.5472, 0
13.3954, 1.12544, 4.77227, 0
13.559, 1.41334, 4.12731, 0
13.4297, 0.81148, 4.30085, 0
13.3759, 0.691912, 3.54559, 0
13.424, 0.811133, 4.53542, 0
13.4389, 0.812036, 3.83748, 0
13.2888, 0.88539, 4.3138, 0
13.544, -2.1576, 3.42882, 0
13.4883, -4.90366, 4.58785, 0
13.5186, -4.91466, 2.65416, 0
13.4426, 0.81226, 3.60851, 0
13.5006, -4.90812, 3.84912, 0
13.4242, 0.811143, 4.77443, 0
13.3602, 0.694349, 4.23017, 0
13.6234, 4.48143, 3.50624, 0
13.3622, 0.693368, 3.99928, 0
13.4053, 0.737619, 2.30789, 0
13.6302, -1.54522, 3.50744, 0
13.6068, -1.53919, 2.6533, 0
13.3009, 0.861397, 2.20024, 0
13.5746, 1.43107, 4.54957, 0
13.6234, 3.61549, 3.7945, 0
13.3807, 1.08362, 3.38974, 0
13.3928, -4.94745, 3.73497, 0
13.2983, 0.862413, 2.418, 0
13.5297, 1.89527, 4.16856, 0
13.6131, 4.2529, 3.53147, 0
13.5901, 0.422593, 4.25476, 0
13.4351, 1.67197, 2.86917, 0
13.6047, 4.03838, 3.50702, 0
13.454, 0.593328, 3.14922, 0
13.5223, 1.88915, 3.9496, 0
13.3305, 0.690902, 4.91164, 0
13.378, 1.01089, 2.55566, 0
13.6199, -2.50367, 3.5289, 0
13.3476, 0.674576, 4.54626, 0
13.4627, 0.646475, 2.76926, 0
13.4498, 0.377124, 4.61512, 0
13.4534, 0.370073, 4.84341, 0
13.5038, 0.355155, 3.94835, 0
13.4383, 1.66692, 2.65373, 0
13.6803, -4.91174, 4.22407, 0
13.5626, 0.352751, 2.62568, 0
13.703, -4.93686, 3.63272, 0
13.5414, 0.365803, 2.18632, 0
13.5943, 1.00524, 3.3998, 0
13.6656, 1.04509, 2.08878, 0
13.661, 0.422992, 2.28053, 0
13.6108, 0.42262, 3.59483, 0
13.4892, 1.8494, 2.42981, 0
13.4367, 4.84161, 3.46265, 0
13.5798, 1.90326, 2.20548, 0
13.5604, 1.90988, 4.61088, 0
13.4856, 1.85994, 4.82249, 0
-11.8333, 13.0749, 3.84876, 0
-11.628, 9.50513, 3.54978, 0
-11.6277, 9.45322, 3.76491, 0
-11.5863, 10.2439, 3.28972, 0
-11.5993, 9.97678, 2.77295, 0
-11.5917, 10.3947, 2.78535, 0
-11.591, 9.46271, 2.79998, 0
-11.5018, 12.984, 2.37761, 0
-11.6004, 10.4266, 2.95711, 0
-11.5534, 13.1031, 4.57446, 0
-11.5811, 13.0772, 2.33144, 0
-11.5917, 13.1203, 2.10407, 0
-11.5554, 7.09742, 2.83522, 0
-11.5596, 7.09374, 2.34497, 0
-11.4915, 12.9262, 4.18342, 0
-11.6076, 9.75392, 3.80794, 0
-11.8541, 13.0724, 2.38327, 0
-11.4247, 13.0412, 3.94939, 0
-11.2382, 7.30101, 2.75033, 0
-11.2371, 7.32031, 2.32188, 0
-11.2369, 13.33, 4.51077, 0
-11.2582, 13.3526, 3.07986, 0
-11.6182, 6.59329, 4.20921, 0
-11.7469, 6.62249, 2.87425, 0
-11.7777, 6.63159, 2.66427, 0
-11.0688, 13.3874, 4.87096, 0
-11.1781, 7.4099, 2.28543, 0
-11.1507, 13.2708, 4.68459, 0
-11.2584, 7.47405, 4.21249, 0
-11.3985, 10.5416, 3.06548, 0
-11.3572, 13.1962, 4.87641, 0
-11.5109, 6.71508, 2.08032, 0
-11.9652, 12.685, 3.87225, 0
-11.6639, 9.45782, 3.04426, 0
-11.3715, 7.14059, 2.60283, 0
-11.65, 10.3476, 3.57918, 0
-11.0739, 13.4012, 4.57958, 0
-11.2266, 13.3485, 2.51368, 0
-11.374, 6.91896, 4.25574, 0
-11.6767, 12.98, 2.08751, 0
-11.396, 6.93237, 2.46127, 0
-11.3442, 13.1323, 3.20206, 0
-11.3806, 6.92299, 3.79683, 0
-11.3929, 6.93046, 2.68005, 0
-11.5858, 9.85227, 3.65576, 0
-11.3417, 13.1294, 3.48687, 0
-10.9492, 13.5164, 4.51554, 0
-11.3855, 6.92599, 3.34517, 0
-11.3361, 13.123, 4.06156, 0
-10.9481, 13.4968, 4.80367, 0
-11.7165, 6.81441, 3.20622, 0
-11.3812, 6.92337, 3.56951, 0
-11.3294, 13.1152, 4.64384, 0
-11.3895, 6.92842, 2.90005, 0
-11.339, 13.1263, 3.77332, 0
-11.0786, 13.4144, 4.29002, 0
-11.3673, 6.91492, 4.48714, 0
-11.6722, 12.975, 2.36814, 0
-11.4679, 12.8835, 4.87402, 0
-11.3177, 13.2057, 2.56755, 0
-11.5918, 6.84017, 4.53912, 0
-11.356, 13.146, 2.07703, 0
-11.6018, 6.84608, 3.83965, 0
-11.0918, 13.4452, 3.7174, 0
-11.4333, 6.68976, 4.82598, 0
-11.6225, 6.85831, 2.26932, 0
-10.9479, 13.5757, 4.03284, 0
-11.1875, 7.37627, 3.94615, 0
-11.1472, 7.37849, 4.27657, 0
-11.8566, 12.8628, 2.52422, 0
-11.2327, 7.45197, 4.67393, 0
-11.1734, 7.38619, 2.93568, 0
-11.5695, 10.2862, 2.80075, 0
-11.472, 12.9338, 4.41399, 0
-11.3537, 13.1433, 2.35669, 0
-11.5941, 6.84155, 4.30338, 0
-11.3363, 7.10606, 4.51211, 0
-11.5971, 6.98336, 2.91073, 0
-11.0987, 13.4609, 3.43334, 0
-11.4904, 6.69519, 4.55402, 0
-11.6255, 6.86009, 2.05024, 0
-11.8848, 12.8784, 3.19526, 0
-11.3671, 7.12538, 2.25597, 0
-11.0848, 13.4293, 4.00278, 0
-11.6159, 6.85445, 2.71066, 0
-11.5408, 6.73908, 2.44095, 0
-12.0028, 12.6466, 4.32345, 0
-11.6576, 9.51877, 3.2941, 0
-11.3558, 7.11832, 3.13903, 0
-11.3343, 7.10484, 4.74901, 0
-11.3696, 7.12692, 2.03809, 0
-11.6663, 10.3415, 3.06729, 0
-11.5889, 6.83846, 4.77706, 0
-11.3989, 6.93416, 2.24363, 0
-11.8905, 12.7715, 3.84853, 0
-11.5318, 6.7425, 2.65003, 0
-10.9952, 13.6252, 2.25581, 0
-11.5077, 6.72123, 3.7012, 0
-11.3377, 7.10698, 4.27747, 0
-11.24, 7.45932, 4.44011, 0
-11.9098, 12.7803, 2.1768, 0
-11.3648, 6.9134, 4.72251, 0
-11.6698, 12.9723, 2.65023, 0
-11.5439, 6.70788, 2.86033, 0
-11.2134, 13.3494, 2.23343, 0
-11.9316, 12.6256, 4.87176, 0
-11.3484, 7.11364, 3.58881, 0
-11.8232, 12.637, 4.89472, 0
-11.3523, 7.11612, 3.36316, 0
-11.9084, 12.7957, 4.69404, 0
-11.1061, 13.4152, 2.0147, 0
-11.5245, 6.71376, 3.27961, 0
-11.3439, 7.11084, 3.81607, 0
-11.6674, 12.9697, 2.93358, 0
-11.5879, 13.1279, 2.55574, 0
-10.9395, 13.5878, 2.07903, 0
-11.6497, 12.95, 4.66739, 0
-11.6534, 12.9542, 4.37379, 0
-11.5569, 13.0961, 4.12485, 0
-12.0513, 12.6753, 2.39155, 0
-11.2059, 7.29021, 4.74789, 0
-11.2523, 7.53216, 3.66649, 0
-11.2631, 7.53799, 4.81472, 0
-11.4573, 7.39214, 2.06421, 0
-11.1744, 7.4409, 2.69181, 0
-11.3878, 10.5559, 3.56486, 0
-11.4361, 13.042, 3.01241, 0
-11.197, 7.6669, 4.04026, 0
-11.2943, 13.4477, 2.6295, 0
-11.6981, 6.60574, 3.79143, 0
-11.2602, 13.4223, 2.34752, 0
-11.6842, 6.61959, 3.59951, 0
-11.2573, 13.4125, 4.0312, 0
-11.5607, 13.0891, 3.67677, 0
-11.411, 9.76254, 2.91184, 0
-11.7362, 12.8356, 4.01949, 0
-11.8327, 12.645, 4.33688, 0
-10.9658, 13.674, 4.33708, 0
-11.3708, 7.44783, 2.44947, 0
-11.5677, 10.4068, 3.35186, 0
-11.4108, 7.44573, 4.41415, 0
-11.4013, 7.44594, 3.96806, 0
-11.4987, 12.9471, 3.31038, 0
-11.1461, 7.69714, 4.18142, 0
-11.5234, 12.9851, 2.0719, 0
-11.1431, 7.71008, 3.09375, 0
-11.1393, 7.72207, 2.02883, 0
-11.4939, 12.9418, 3.72829, 0
-11.1446, 7.69303, 4.40237, 0
-11.5163, 12.9653, 2.58225, 0
-11.1425, 7.70367, 3.5249, 0
-11.8703, 12.7699, 2.73108, 0
-10.8938, 13.6949, 3.14985, 0
-10.9008, 13.704, 3.70881, 0
-11.5673, 7.18327, 2.09609, 0
-10.9084, 13.714, 4.27373, 0
-10.8979, 13.7002, 3.4288, 0
-11.8469, 13.092, 2.90039, 0
-11.6481, 12.8973, 3.17161, 0
-11.6167, 12.8903, 3.4522, 0
-11.5491, 9.87109, 2.69148, 0
-11.6704, 6.60319, 4.79963, 0
-11.7205, 6.61464, 4.37233, 0
-11.7274, 6.63709, 2.23877, 0
-11.7081, 6.6345, 2.44898, 0
-11.4986, 6.72457, 3.91293, 0
-12.0152, 12.664, 2.6644, 0
-11.224, 7.28218, 4.06657, 0
-11.2447, 7.27494, 3.4018, 0
-11.2233, 7.2922, 3.8442, 0
-11.7307, 12.8578, 4.29816, 0
-11.5595, 7.0606, 2.95546, 0
-11.1917, 7.38142, 3.719, 0
-11.2026, 7.3934, 3.27063, 0
-12.1026, 12.7024, 2.11812, 0
-11.2299, 7.09705, 4.50086, 0
-11.4778, 13.1, 3.05287, 0
-11.1824, 13.3126, 2.71824, 0
-11.8756, 12.6504, 4.62358, 0
-11.9399, 12.6772, 3.58882, 0
-11.6076, 9.43173, 2.96682, 0
-11.5598, 9.43536, 3.1782, 0
-11.5591, 10.3512, 3.60743, 0
-11.6649, 6.86643, 3.58473, 0
-11.6392, 10.4601, 3.77568, 0
-11.5477, 9.47116, 2.95125, 0
-11.5808, 9.3992, 2.84271, 0
13.569, 15.5504, 3.82369, 0
13.5726, 15.9241, 3.89973, 0
13.5713, 15.5584, 3.27095, 0
13.5885, 15.5378, 3.0308, 0
13.5929, 15.4973, 3.49593, 0
13.6139, 15.85, 3.53855, 0
13.5935, 19.0251, 2.57289, 0
6.56311, 19.2472, 3.84588, 0
13.3936, 19.3631, 2.67843, 0
13.4011, 19.3866, 3.19407, 0
13.3777, 19.354, 3.73855, 0
13.415, 19.4253, 2.15862, 0
13.7168, 19.0742, 3.43045, 0
13.3354, 19.473, 2.98461, 0
6.819, 19.3197, 3.92123, 0
6.39128, 19.3175, 3.9071, 0
7.45197, 19.2659, 3.77771, 0
13.4143, 19.3769, 3.02209, 0
6.5238, 19.2364, 3.58198, 0
13.3697, 19.3608, 2.28638, 0
13.5709, 16.0762, 2.8504, 0
13.3017, 19.2514, 3.88498, 0
13.3038, 19.2453, 3.1474, 0
6.4394, 19.2287, 3.50127, 0
6.41105, 19.23, 3.17592, 0
13.3052, 19.2657, 4.62354, 0
13.4735, 16.3, 3.49903, 0
13.2938, 19.2081, 4.89163, 0
13.2809, 19.2847, 3.41565, 0
13.2734, 19.2408, 2.3091, 0
13.3001, 19.3353, 4.15442, 0
6.44479, 19.243, 3.02694, 0
13.236, 19.5523, 2.34811, 0
13.7349, 19.0685, 2.76099, 0
13.8523, 19.1216, 3.5048, 0
6.69218, 19.24, 3.44518, 0
6.65248, 19.2442, 3.12375, 0
7.3598, 19.2997, 2.68316, 0
13.4069, 19.3805, 4.03809, 0
13.3792, 19.3669, 4.5115, 0
7.62794, 19.2372, 3.34298, 0
7.33532, 19.3077, 3.8177, 0
12.6608, 19.8174, 2.30493, 0
12.6468, 19.8526, 2.68602, 0
12.6678, 19.7684, 3.80965, 0
13.8318, 18.8583, 2.88897, 0
13.6548, 19.0891, 4.12892, 0
7.82514, 19.0419, 2.99949, 0
13.5426, 19.0104, 3.25014, 0
13.6981, 19.06, 3.8364, 0
7.85993, 19.037, 2.79335, 0
13.5444, 19.0864, 2.12709, 0
13.03, 19.5657, 3.12063, 0
13.6663, 18.9373, 3.39215, 0
13.3841, 19.3693, 4.66579, 0
7.46363, 19.2151, 3.46637, 0
13.68, 19.0595, 3.02425, 0
12.7043, 19.7116, 4.77315, 0
13.2749, 19.2539, 2.67814, 0
13.9945, 18.7388, 2.38828, 0
12.9281, 19.6189, 2.46698, 0
13.8125, 18.8494, 4.64697, 0
5.96392, 19.4742, 3.66479, 0
13.8142, 18.8758, 2.37007, 0
13.3843, 19.2097, 2.79933, 0
13.3872, 19.2139, 2.42375, 0
7.6958, 19.0697, 3.41568, 0
12.6904, 19.7289, 2.8798, 0
13.3008, 19.2947, 2.03123, 0
13.9492, 18.7812, 4.94477, 0
12.8862, 19.6055, 2.84837, 0
13.8332, 18.8595, 4.26638, 0
5.86933, 19.4793, 3.30717, 0
13.4142, 19.4088, 4.12139, 0
13.7073, 16.3845, 3.37045, 0
7.46591, 19.221, 3.13188, 0
13.6524, 19.0449, 2.80174, 0
13.3675, 19.1856, 4.69946, 0
13.3708, 19.1903, 4.31571, 0
5.59843, 19.7351, 3.20239, 0
7.71601, 19.1139, 2.93728, 0
12.9364, 19.5981, 4.35964, 0
13.6344, 19.0197, 4.70318, 0
13.6618, 19.0586, 4.89269, 0
7.88169, 19.0249, 3.45411, 0
13.3317, 19.2959, 3.49174, 0
12.6743, 17.3768, 3.34133, 0
13.6562, 19.0502, 2.42597, 0
13.6585, 18.9556, 3.77204, 0
5.89064, 19.4867, 2.97634, 0
13.5128, 16.4681, 3.0534, 0
13.0729, 19.5793, 3.87628, 0
13.562, 19.0977, 4.40003, 0
12.8827, 19.5649, 4.73887, 0
7.03631, 19.1131, 3.54625, 0
12.6832, 19.7674, 3.26264, 0
6.99176, 19.0616, 2.80141, 0
13.5775, 19.1171, 3.12108, 0
13.665, 19.0545, 4.54343, 0
7.81664, 19.0353, 3.3301, 0
13.2163, 19.5149, 2.72402, 0
13.5471, 19.014, 4.63313, 0
13.861, 18.7362, 4.86633, 0
13.8677, 18.7405, 4.48604, 0
12.3806, 20.2382, 4.86296, 0
13.5752, 15.8825, 2.85923, 0
12.3646, 20.1533, 4.46736, 0
12.7644, 19.7641, 3.54769, 0
13.6185, 15.9129, 2.7042, 0
12.3595, 20.2309, 4.09796, 0
12.7688, 19.7274, 3.16452, 0
12.3515, 20.1581, 3.70865, 0
12.3385, 20.1619, 2.95356, 0
6.91132, 19.5177, 3.19596, 0
13.7072, 19.038, 3.74334, 0
6.50593, 19.7964, 3.4459, 0
13.5605, 18.996, 3.86657, 0
12.6301, 19.9994, 4.43028, 0
13.5086, 19.0677, 3.42348, 0
13.6393, 19.0266, 4.31963, 0
12.7019, 20.0274, 4.814, 0
13.3769, 19.1992, 3.55408, 0
13.5482, 18.9983, 2.87357, 0
12.6267, 20.0186, 3.67263, 0
12.9522, 19.671, 3.01957, 0
13.5423, 19.03, 3.62943, 0
6.46321, 19.7994, 3.11746, 0
12.7221, 20.0838, 4.05613, 0
12.6249, 20.0392, 2.91753, 0
12.5624, 20.0243, 2.54386, 0
13.9797, 18.7193, 4.26949, 0
12.6252, 20.0623, 2.16325, 0
14.0157, 18.7411, 2.76353, 0
12.6537, 19.8013, 4.19185, 0
6.46431, 19.5131, 2.90025, 0
6.53638, 19.3519, 3.40243, 0
13.0257, 16.9012, 3.56426, 0
12.6924, 19.7865, 4.40402, 0
7.14613, 19.262, 2.87513, 0
13.4336, 16.6246, 3.16817, 0
13.1918, 19.448, 4.21152, 0
13.513, 16.4107, 2.72408, 0
13.2011, 19.4769, 3.46942, 0
13.1828, 19.3978, 3.3212, 0
12.3256, 20.165, 2.20062, 0
12.7621, 19.7481, 4.68651, 0
6.81555, 19.5512, 3.06677, 0
12.7672, 19.7141, 4.30053, 0
13.1723, 19.4177, 4.79804, 0
13.427, 16.6099, 3.84167, 0
7.30315, 19.2319, 3.70697, 0
12.7411, 19.8335, 2.03872, 0
13.4303, 16.6173, 3.50515, 0
13.1882, 19.4353, 4.58208, 0
7.32319, 19.3338, 3.25937, 0
13.0347, 19.5652, 4.25789, 0
13.3739, 19.1948, 3.93398, 0
1.24533, -17.298, 5.3529, 0
0.528426, -17.2296, 5.33981, 0
1.21037, -17.2679, 5.21211, 0
0.733632, -17.1226, 4.97905, 0
1.17745, -17.1035, 5.48034, 0
0.833413, -17.1288, 5.18356, 0
1.1774, -17.1029, 5.78148, 0
1.1779, -17.1101, 5.184, 0
1.37758, -17.1874, 5.34414, 0
0.800021, -17.2633, 5.48692, 0
0.833163, -17.1237, 5.7817, 0
0.833467, -17.13, 5.48233, 0
0.96744, -17.2718, 5.83616, 0
0.99987, -17.286, 5.04904, 0
1.40486, -17.1746, 5.93594, 0
1.42719, -17.2598, 5.6638, 0
-11.6039, 4.30731, 2.44576, 0
-11.5664, -2.33665, 2.4452, 0
-11.5678, -2.55012, 2.4677, 0
-11.5801, -2.14693, 2.87504, 0
-11.571, -1.52863, 3.4942, 0
-11.5575, -1.84055, 3.38081, 0
-11.5625, -2.19899, 3.38122, 0
-11.6217, 0.761395, 3.80983, 0
-11.4319, 0.638635, 2.52079, 0
-11.6624, 3.50761, 3.44683, 0
-11.6039, 3.46581, 2.87525, 0
-11.5668, 3.5524, 2.74386, 0
-11.6015, 3.62889, 2.48782, 0
-11.5472, -1.5536, 3.30442, 0
-11.5253, -1.59663, 2.87731, 0
-11.5278, 1.82124, 4.57688, 0
-11.4902, 1.80157, 3.60748, 0
-11.6179, 0.757306, 4.75909, 0
-11.5101, -2.57175, 3.21757, 0
-11.5188, -2.55533, 2.97643, 0
-11.5835, -1.68155, 2.6943, 0
-11.4567, 1.6901, 4.92963, 0
-11.4907, 1.71646, 4.1435, 0
-11.5041, 1.72367, 3.9523, 0
-11.4631, 1.6915, 2.06586, 0
-11.5259, 1.60189, 4.20608, 0
-11.5163, 1.81999, 3.0541, 0
-11.5485, 4.19509, 3.47387, 0
-11.5763, 1.20189, 3.7998, 0
-11.5609, 1.20376, 3.60009, 0
-11.5205, -1.94361, 2.83465, 0
-11.5531, 1.20639, 3.40445, 0
-11.4316, 0.634918, 2.70053, 0
-11.6544, 3.50723, 3.64617, 0
-11.4739, 0.606665, 4.16958, 0
-11.5361, -4.92626, 2.11147, 0
-11.5115, -4.89877, 2.72149, 0
-11.5894, -1.80406, 3.49354, 0
-11.5493, -4.91991, 3.40363, 0
-11.6067, 0.376886, 2.34176, 0
-11.5747, 3.32656, 3.17582, 0
-11.5149, -4.947, 4.62611, 0
-11.5749, 0.382695, 3.63797, 0
-11.5337, -4.92356, 3.78819, 0
-11.6137, 0.351078, 2.86648, 0
-11.8561, -4.37668, 2.37676, 0
-11.521, -2.55334, 2.82239, 0
-11.5606, 3.43, 2.79718, 0
-11.3709, 0.628423, 4.71201, 0
-11.5942, 1.17383, 4.69295, 0
-11.3688, 0.632139, 4.52296, 0
-11.582, 0.378413, 3.83006, 0
-11.5282, -4.72305, 4.78669, 0
-11.6814, -4.46817, 4.21221, 0
-11.6252, 0.752099, 4.09265, 0
-11.6482, -4.5375, 4.64169, 0
-11.6808, -4.68268, 4.45267, 0
-11.5543, 1.11201, 2.25367, 0
-11.4446, 1.11257, 4.81877, 0
-11.4621, 0.609989, 3.98105, 0
-11.5149, -4.90023, 2.51504, 0
-11.6338, -1.77843, 2.88306, 0
-11.4058, 0.804434, 4.68313, 0
-11.4417, 1.15479, 3.87824, 0
-11.4521, 1.15584, 3.28076, 0
-11.5859, 0.334123, 4.73027, 0
-11.9052, -4.38019, 4.26405, 0
-11.586, 0.369432, 4.21677, 0
-11.6532, -2.48225, 3.21531, 0
-11.4468, 1.1553, 3.67773, 0
-11.5408, -4.92441, 3.45368, 0
-11.6116, 0.356251, 2.68478, 0
-11.5419, -4.9346, 4.08949, 0
-11.4591, 1.11216, 4.40329, 0
-11.4445, 0.807159, 2.30576, 0
-11.5529, 4.10875, 2.83586, 0
-11.5655, 0.751092, 3.20715, 0
-11.4392, 1.15453, 4.08168, 0
-11.5491, -4.92395, 3.01034, 0
-11.6026, 0.381057, 2.15885, 0
-11.4681, 1.15745, 2.3165, 0
-11.7241, -4.71467, 2.99082, 0
-11.4483, 1.48781, 3.39797, 0
-11.4447, 1.48871, 3.79638, 0
-11.4468, 1.48829, 3.59631, 0
-11.7106, -4.70511, 3.40125, 0
-11.7022, -4.69968, 3.60786, 0
-11.5531, 0.722829, 3.28522, 0
-11.5621, 4.35913, 2.70728, 0
-11.5988, 0.752073, 4.42949, 0
-11.4531, 1.67656, 3.44563, 0
-11.5333, 3.90416, 3.56373, 0
-11.7371, -4.74506, 4.91751, 0
-11.53, 1.22739, 2.0825, 0
-11.5837, 4.3152, 3.01007, 0
-11.8888, -4.37576, 4.04395, 0
-11.6078, 0.360778, 4.61648, 0
-11.6411, 0.533762, 2.12515, 0
-11.4593, 1.48588, 2.43123, 0
-11.6691, 4.4478, 3.22016, 0
-11.6845, -4.68628, 4.23837, 0
-11.4636, 1.48512, 2.05356, 0
-11.6542, 4.41047, 2.95162, 0
-11.6903, -4.69073, 4.02657, 0
-11.6004, 3.84634, 2.93411, 0
-11.3915, 0.96791, 2.70966, 0
-11.5553, 3.76733, 3.50667, 0
-11.6513, 3.80979, 2.7593, 0
-11.3798, 0.979643, 4.16737, 0
-11.4118, 0.991481, 3.61969, 0
-11.3597, 0.971779, 4.53678, 0
-11.4227, 0.975045, 3.90291, 0
-11.4941, 0.591763, 3.61855, 0
-11.5608, 0.586283, 2.7093, 0
-11.4327, 0.932369, 3.05498, 0
-11.6085, -4.73938, 2.591, 0
-11.616, -4.74089, 2.38992, 0
-11.4068, 1.30189, 3.00331, 0
-11.3882, 1.28645, 2.82058, 0
-11.5682, 4.30502, 3.67288, 0
-11.4534, 4.57795, 3.28156, 0
-11.4619, 4.5365, 2.88855, 0
-11.5482, -2.51666, 3.52737, 0
-11.6272, 0.504199, 4.42453, 0
-11.5376, -2.50139, 3.91182, 0
-11.6276, 0.499404, 4.80716, 0
-11.4656, 0.769006, 3.20303, 0
-11.5728, 1.14558, 2.928, 0
-11.6457, 3.50664, 3.84515, 0
-11.5461, 0.742799, 3.13874, 0
-11.6504, 4.49033, 3.62802, 0
-11.6417, 4.48888, 3.83195, 0
-11.6165, -2.7723, 2.87353, 0
-11.6087, -2.77142, 3.46037, 0
-11.6352, 0.523768, 2.8978, 0
-11.6271, 0.506592, 4.23372, 0
-11.5211, -2.53671, 3.16097, 0
-11.6287, 0.51146, 3.85263, 0
-11.5245, -2.53341, 3.01549, 0
-11.6382, 0.528749, 2.51291, 0
-11.5943, -1.54084, 3.26798, 0
-11.6301, 0.51392, 3.66211, 0
-11.5353, -2.52698, 2.79493, 0
-11.6209, 1.11977, 2.7446, 0
-11.6483, 3.40808, 3.14523, 0
-11.5756, -2.61742, 3.32133, 0
-11.5815, -2.64888, 2.72686, 0
-11.5441, 3.4741, 2.81346, 0
-11.5432, 3.95071, 2.57678, 0
-11.5441, 4.46003, 2.74594, 0
-11.5995, -2.54657, 2.98426, 0
-11.6042, -2.53075, 2.78297, 0
-11.6038, -2.06872, 2.73443, 0
-11.6074, 1.13845, 2.16509, 0
-11.4571, 0.739026, 3.43269, 0
-11.6258, -1.97401, 3.48285, 0
-11.6232, -2.34962, 3.52026, 0
-11.5912, 0.82716, 2.59892, 0
-11.6055, 0.817521, 2.25404, 0
-11.5882, 1.17489, 4.2105, 0
-11.5246, -1.72335, 3.40185, 0
-11.6057, 1.18346, 4.37339, 0
-11.5322, -1.55425, 2.80325, 0
-11.5969, -1.56455, 3.07476, 0
-11.5447, 3.44138, 3.47083, 0
-11.5442, 3.4642, 3.20804, 0
-11.5441, 3.47486, 2.85929, 0
-11.5754, -1.5826, 2.51256, 0
-11.5437, 3.41471, 3.11237, 0
-11.5739, -1.53925, 2.8389, 0
-11.5342, 3.41618, 3.32283, 0
-11.5454, -2.1086, 2.57252, 0
-11.5903, 0.751131, 3.70706, 0
-11.5405, -2.23442, 3.37699, 0
-11.598, 0.756471, 2.92448, 0
-11.6345, 0.758309, 5.69794, 0
-11.6455, 0.765242, 5.13687, 0
-11.5879, 0.745567, 5.37631, 0
-11.6147, 0.754499, 5.31462, 0
-11.5797, 0.725496, 5.91223, 0
-11.5648, 1.15417, 5.33591, 0
-11.5636, 1.21312, 5.81649, 0
-11.5656, -4.90129, 5.48864, 0
-11.6422, -4.53113, 5.07859, 0
-11.7244, -4.73763, 5.13616, 0
-11.6904, -4.7169, 5.80721, 0
-11.4075, 1.66221, 5.49688, 0
-11.3995, 1.66022, 5.71441, 0
-11.4118, 1.11314, 5.67983, 0
-11.4214, 1.11311, 5.46084, 0
-11.6233, 0.318195, 5.33215, 0
-11.4669, -4.87982, 5.81116, 0
-11.3946, 0.80364, 5.54888, 0
-11.4303, 1.11303, 5.24454, 0
-11.4367, 1.56074, 5.62451, 0
-11.445, 1.56613, 5.41355, 0
-11.4633, 1.70065, 5.98448, 0
-11.5291, 1.73326, 5.16516, 0
-11.3929, 0.993111, 5.708, 0
-11.3984, 0.803912, 5.10924, 0
-11.5584, 1.21208, 5.21854, 0
-11.4725, -4.88219, 5.33917, 0
-11.3739, 0.616917, 5.28806, 0
-11.3778, 0.609144, 5.68202, 0
-11.3824, 0.605309, 5.88316, 0
-11.5154, -4.72084, 5.18917, 0
-11.5772, 0.427252, 5.06302, 0
-11.3701, 0.620662, 5.09352, 0
-11.6271, 0.487223, 5.77404, 0
-11.6278, 0.494578, 5.19178, 0
13.6716, -13.8391, 2.86996, 0
13.6614, -11.3841, 4.14465, 0
13.6563, -7.58535, 3.67502, 0
13.6807, -11.3807, 2.11294, 0
13.6649, -7.5303, 2.77859, 0
13.6375, -7.52782, 2.94252, 0
13.6754, -5.30016, 2.16285, 0
13.6562, -8.48579, 3.46485, 0
13.651, -7.51703, 3.27946, 0
13.6556, -13.5073, 3.38547, 0
13.644, -7.93863, 3.60095, 0
13.6409, -13.5629, 3.45785, 0
13.6552, -13.5511, 2.7779, 0
13.6468, -7.58735, 3.16769, 0
13.636, -7.59212, 3.62807, 0
13.6513, -8.48588, 2.8218, 0
13.2705, -5.52229, 2.58397, 0
13.3226, -11.2434, 2.07206, 0
13.3251, -5.29314, 2.46154, 0
13.6549, -13.6197, 2.92759, 0
13.3397, -5.31391, 3.40418, 0
13.3241, -5.289, 2.22815, 0
13.2629, -5.25193, 4.58513, 0
13.6167, -8.42875, 3.53706, 0
13.2661, -5.07318, 2.9189, 0
13.2506, -5.079, 3.61919, 0
13.6367, -8.06122, 2.71105, 0
13.3102, -11.2687, 4.51515, 0
13.6189, -14.5234, 3.68192, 0
13.3541, -5.30141, 2.15152, 0
13.3764, -5.31754, 2.38772, 0
13.6532, -5.30196, 2.53929, 0
13.6606, -5.26049, 4.23297, 0
13.2921, -5.24021, 2.61142, 0
13.3276, -5.24976, 4.41891, 0
13.4922, -8.22663, 3.45993, 0
13.6838, -11.0564, 2.78549, 0
13.3643, -5.26328, 3.42764, 0
13.5859, -10.9356, 4.38483, 0
13.6168, -10.9444, 4.10036, 0
13.4738, -10.9664, 4.03778, 0
13.3835, -5.27905, 3.67219, 0
13.2969, -5.2436, 2.31068, 0
13.2984, -5.23948, 2.07801, 0
13.2981, -5.26798, 3.49438, 0
13.6673, -13.5381, 3.54928, 0
13.496, -8.37451, 2.71114, 0
13.2597, -5.06099, 4.1962, 0
13.7097, -11.0132, 2.42862, 0
13.6309, -8.13384, 3.44886, 0
13.2626, -5.05737, 3.95357, 0
13.6633, -11.004, 2.14837, 0
13.366, -11.3122, 2.12961, 0
13.4159, -5.16178, 2.92475, 0
13.3115, -11.217, 3.53869, 0
13.3225, -11.2047, 2.39969, 0
13.3081, -11.2251, 4.11914, 0
13.4297, -11.3286, 2.38403, 0
13.3461, -11.3144, 2.32839, 0
13.5469, -10.9688, 4.37537, 0
13.4715, -5.2938, 4.93942, 0
13.5493, -10.9708, 4.08326, 0
13.6197, -7.56465, 2.82161, 0
13.416, -5.23697, 2.4218, 0
13.4088, -11.3111, 4.10867, 0
13.6781, -14.4306, 3.37987, 0
13.327, -11.2853, 2.04265, 0
13.3895, -5.22663, 4.34458, 0
13.3365, -5.25111, 3.92748, 0
13.6186, -8.42185, 3.03916, 0
13.5761, -10.9925, 2.08861, 0
13.3862, -5.22536, 4.59357, 0
13.3324, -5.25056, 4.17225, 0
13.6174, -8.42512, 3.28825, 0
13.5723, -10.9894, 2.36962, 0
13.5665, -10.9846, 2.93537, 0
13.3823, -5.22383, 4.84476, 0
13.4014, -5.23127, 3.61114, 0
13.6554, -8.04743, 2.83061, 0
13.5442, -10.9666, 4.66962, 0
13.403, -5.2319, 3.36984, 0
13.3041, -11.2329, 4.70821, 0
13.584, -14.4764, 2.64132, 0
13.4177, -11.3185, 3.52791, 0
13.6544, -14.488, 2.8161, 0
13.3946, -5.22863, 3.85283, 0
13.5682, -10.986, 2.65164, 0
13.4118, -11.3136, 3.81697, 0
13.6616, -14.5005, 3.05821, 0
13.2484, -5.06621, 4.68602, 0
13.6915, -11.0126, 2.97212, 0
13.6434, -13.5619, 2.8419, 0
13.4056, -11.3083, 4.40234, 0
13.6534, -14.3862, 3.51938, 0
13.665, -10.967, 3.82071, 0
13.3078, -11.2305, 4.41305, 0
13.3251, -11.2991, 4.04647, 0
13.6429, -14.5286, 3.06269, 0
13.3228, -5.25011, 4.92084, 0
13.3115, -11.2225, 3.82839, 0
13.339, -5.24992, 3.44217, 0
13.402, -11.3053, 4.69809, 0
13.6377, -13.8267, 2.81734, 0
13.5613, -10.9318, 4.67209, 0
13.3165, -5.58068, 4.00144, 0
13.4587, -8.79208, 2.92021, 0
13.2939, -5.56915, 4.23607, 0
13.4607, -8.77061, 3.17083, 0
13.2816, -5.56189, 4.47324, 0
13.2077, -11.5309, 2.59796, 0
13.1215, -11.4155, 4.85762, 0
13.142, -11.4627, 4.29162, 0
13.6355, -14.4661, 3.3776, 0
13.321, -14.5407, 2.79308, 0
13.3136, -14.6054, 3.11594, 0
13.6585, -4.96651, 2.10919, 0
13.671, -4.96245, 3.74619, 0
13.4741, -5.27392, 4.22277, 0
13.6544, -8.49381, 3.2915, 0
13.489, -5.28948, 3.98957, 0
13.6573, -8.44933, 2.9398, 0
13.5101, -5.32896, 4.46984, 0
13.4853, -5.19317, 2.70052, 0
13.3312, -11.5306, 3.31721, 0
13.4425, -14.614, 3.06582, 0
13.1567, -11.6146, 3.88636, 0
13.4424, -14.6479, 3.38931, 0
13.2405, -11.5635, 4.1448, 0
13.5409, -13.888, 3.55098, 0
13.4453, -5.34297, 2.66088, 0
13.6323, -10.9434, 2.03749, 0
13.6427, -10.9344, 2.93339, 0
13.3305, -5.63216, 2.00409, 0
13.6453, -10.9455, 3.47469, 0
13.3302, -5.63011, 2.46534, 0
13.6046, -10.9454, 3.80578, 0
13.3568, -5.65746, 4.07787, 0
13.3537, -5.65229, 4.53999, 0
13.4108, -8.86682, 3.00409, 0
13.4092, -8.90502, 2.75204, 0
13.4091, -8.8893, 3.26249, 0
13.4189, -11.3904, 2.99653, 0
13.3767, -11.3789, 3.27961, 0
13.164, -11.6538, 2.48933, 0
13.1639, -11.6497, 3.32995, 0
13.2038, -11.7089, 3.61431, 0
13.1581, -11.6095, 4.72801, 0
13.3908, -14.7147, 3.76092, 0
13.6511, -7.75057, 2.83467, 0
13.2685, -14.8301, 3.37564, 0
13.5981, -10.937, 2.77901, 0
13.6524, -10.9364, 2.65948, 0
13.7449, -10.9496, 3.20386, 0
13.3866, -5.62842, 2.33929, 0
13.7071, -10.9307, 3.75178, 0
13.6731, -10.9442, 4.14416, 0
13.4095, -11.3217, 2.74321, 0
13.2202, -11.5947, 2.21468, 0
13.6568, -10.9132, 4.84221, 0
13.3654, -5.60228, 2.56876, 0
13.7227, -10.9375, 3.47833, 0
13.3543, -5.65971, 3.61697, 0
13.668, -10.9165, 4.56972, 0
13.675, -10.943, 2.10844, 0
13.6222, -8.57288, 2.74227, 0
13.6949, -11.0461, 3.33195, 0
13.6518, -7.56948, 3.078, 0
13.656, -11.0134, 4.65816, 0
13.6647, -11.0222, 3.56773, 0
13.6372, -14.5512, 3.50874, 0
13.3072, -11.2707, 3.74962, 0
13.6817, -11.0298, 4.3265, 0
13.7146, -11.0133, 4.50117, 0
13.668, -4.95241, 4.87879, 0
13.6095, -11.0045, 3.65783, 0
13.6666, -14.0688, 2.75932, 0
13.5795, -11.0587, 3.26187, 0
13.6596, -4.96055, 2.42636, 0
13.6778, -4.9522, 2.66916, 0
13.4504, -5.26177, 2.91774, 0
13.337, 13.2131, 5.38998, 0
13.727, 6.92246, 5.77203, 0
13.2972, 13.172, 5.64099, 0
13.4699, 13.1945, 5.95071, 0
13.5067, 7.10612, 5.85583, 0
13.372, 7.42288, 5.61006, 0
13.3735, 7.41401, 5.12882, 0
13.1113, 13.5551, 5.67374, 0
13.3333, 7.4583, 5.40115, 0
13.2201, 13.4991, 5.01728, 0
13.1601, 13.4736, 5.32108, 0
13.1829, 13.4796, 5.94357, 0
13.4041, 7.48186, 5.36199, 0
13.6813, 6.91402, 5.02562, 0
13.7043, 6.91584, 5.52048, 0
13.3418, 7.10797, 5.09814, 0
13.6188, 6.85022, 5.14115, 0
13.2192, 7.95254, 5.04968, 0
13.5478, 12.9047, 5.65545, 0
13.5156, 7.10579, 5.61555, 0
13.4845, 7.20045, 5.02701, 0
13.312, 7.46295, 5.60278, 0
13.3554, 13.1553, 5.02309, 0
13.7092, 12.7806, 5.10286, 0
12.9741, 13.9554, 5.70194, 0
13.3515, 13.1515, 5.34171, 0
13.6088, 6.84519, 5.68177, 0
13.6872, 12.7714, 5.41727, 0
13.0736, 8.24213, 5.34261, 0
13.5438, 12.9009, 5.97925, 0
13.596, 6.743, 5.05565, 0
13.7267, 12.9618, 5.62744, 0
13.5314, 6.72934, 5.84735, 0
13.5542, 12.9108, 5.01578, 0
12.7356, 14.2396, 5.75489, 0
13.0647, 8.20977, 5.59348, 0
13.3233, 7.18139, 5.61099, 0
13.3189, 7.17564, 5.37192, 0
13.6092, 12.726, 4.98112, 0
13.6635, 12.7188, 5.94529, 0
13.7478, 12.6848, 5.66844, 0
13.7559, 12.6917, 5.03867, 0
12.9676, 13.8285, 5.7309, 0
13.7492, 12.6859, 5.35162, 0
13.23, 7.93812, 5.82291, 0
13.3433, 6.8879, 5.70913, 0
13.3463, 13.1464, 5.98852, 0
13.5513, 12.908, 5.33433, 0
12.7037, 14.1651, 5.42244, 0
12.9162, 13.944, 5.38302, 0
13.4769, 7.19024, 5.27033, 0
13.3512, 13.1513, 5.66462, 0
13.092, 8.28028, 5.09488, 0
12.9067, 13.6927, 5.07839, 0
13.3593, 6.95203, 5.92129, 0
13.6112, 6.84637, 5.40897, 0
13.6035, 6.67384, 5.96816, 0
13.5682, 6.7353, 5.31486, 0
13.1506, 7.73498, 5.3741, 0
13.1617, 7.76648, 5.12641, 0
13.6785, 0.795953, 5.68128, 0
13.6031, 1.45037, 4.97521, 0
13.324, 1.05135, 5.70984, 0
13.3306, 1.05476, 5.46858, 0
13.4697, -4.8969, 5.87012, 0
13.2723, 0.893656, 5.26315, 0
13.2794, 0.891749, 5.02303, 0
13.4099, 1.09009, 5.81985, 0
13.3485, -4.94131, 5.50761, 0
13.4167, 0.810692, 5.0133, 0
13.3363, 1.05808, 5.22955, 0
13.3439, 0.676453, 5.62916, 0
13.3948, 1.1254, 5.01361, 0
13.3829, 0.692114, 5.47398, 0
13.3885, 0.689179, 5.72027, 0
13.338, 0.681253, 5.38691, 0
13.3862, 1.12467, 5.25464, 0
13.3836, 0.695337, 5.23276, 0
13.4808, -4.90091, 5.09228, 0
13.4813, 0.348911, 5.54421, 0
13.4757, -4.89908, 5.34803, 0
13.4154, 0.810615, 5.2572, 0
13.4102, 0.810301, 5.75307, 0
13.6592, -4.91121, 5.95083, 0
13.4595, 0.363018, 5.07407, 0
13.344, 0.671312, 5.87213, 0
13.4044, 0.376093, 5.99518, 0
13.4767, -4.89943, 5.60916, 0
13.6685, -4.91198, 5.73085, 0
13.665, 0.797654, 5.28513, 0
13.3329, -4.94448, 5.81437, 0
13.5081, 1.88421, 5.71638, 0
13.4109, 1.68603, 5.25366, 0
13.2626, 0.897849, 5.75376, 0
13.5203, 1.42894, 5.82082, 0
13.5125, 1.41187, 5.39314, 0
13.6666, -4.90832, 4.97319, 0
7.23674, -17.3486, 3.59178, 0
13.4512, -17.4332, 2.16502, 0
13.851, -17.0664, 3.29541, 0
6.95771, -17.3478, 3.50023, 0
13.1419, -17.6524, 3.24729, 0
13.1347, -17.6138, 2.55359, 0
13.1399, -17.6678, 2.20514, 0
7.04773, -17.3217, 3.40491, 0
13.1379, -17.5716, 2.89937, 0
13.0276, -17.7037, 4.07336, 0
6.64256, -17.2746, 3.51898, 0
13.0286, -17.6453, 3.36415, 0
6.58728, -17.3401, 3.16449, 0
13.0193, -17.6027, 3.01102, 0
6.58386, -17.3695, 2.91618, 0
13.008, -17.6778, 2.66806, 0
6.52608, -17.3213, 2.76288, 0
13.0144, -17.6561, 2.31444, 0
13.2386, -17.4762, 2.26895, 0
7.3462, -17.3083, 2.52675, 0
6.54966, -17.2069, 3.35644, 0
13.5069, -17.2595, 4.06931, 0
13.4296, -17.2845, 4.37977, 0
13.7595, -17.1256, 2.93293, 0
6.33187, -17.263, 3.48423, 0
6.34935, -17.272, 2.89021, 0
7.257, -17.2805, 3.44866, 0
7.30042, -17.2842, 3.14436, 0
13.1235, -17.5626, 2.31593, 0
6.58917, -17.1994, 3.10992, 0
13.3558, -17.3082, 3.62934, 0
13.329, -17.1911, 4.68702, 0
13.58, -17.0264, 4.33773, 0
13.3538, -17.2936, 3.27165, 0
13.6675, -17.0777, 2.57503, 0
13.3845, -17.2875, 2.26286, 0
13.2321, -17.4507, 3.76317, 0
7.44727, -17.2588, 3.16087, 0
13.7595, -17.0254, 4.01982, 0
13.711, -17.1508, 3.52557, 0
13.7326, -17.0905, 4.3449, 0
13.0721, -17.4458, 4.06709, 0
7.44639, -17.2567, 3.46798, 0
13.3608, -17.2568, 4.74762, 0
13.3775, -17.2785, 2.96508, 0
13.346, -17.2292, 4.04517, 0
7.496, -17.2086, 3.31648, 0
13.6968, -17.1027, 2.22712, 0
13.3818, -17.2839, 2.61354, 0
13.5717, -17.0519, 4.7409, 0
7.49772, -17.3524, 3.7801, 0
13.3344, -17.2619, 4.42814, 0
13.3346, -17.1862, 4.32677, 0
13.5955, -17.0818, 2.25959, 0
13.5743, -17.0551, 4.38078, 0
7.35799, -17.3651, 2.80452, 0
13.0849, -17.4115, 3.35931, 0
6.95091, -17.1945, 3.52346, 0
13.5918, -17.077, 2.60958, 0
13.5895, -17.0742, 2.96104, 0
13.34, -17.2609, 2.64994, 0
7.27741, -17.289, 2.84345, 0
6.71136, -17.2207, 3.55702, 0
13.3431, -17.1581, 4.51374, 0
13.7076, -17.1132, 2.32522, 0
7.47365, -17.2265, 3.01735, 0
13.3329, -17.2091, 3.70625, 0
13.3474, -17.3043, 4.7974, 0
7.42635, -17.3078, 2.53269, 0
13.3429, -17.2898, 3.00494, 0
13.4597, -17.1801, 3.28365, 0
13.4594, -17.2066, 3.6397, 0
7.50039, -17.2232, 2.67905, 0
13.082, -17.4925, 3.71927, 0
7.44928, -17.2634, 2.85575, 0
13.3898, -17.2988, 3.81971, 0
13.6729, -17.0188, 4.73224, 0
13.661, -17.0104, 4.37329, 0
13.3746, -17.2366, 4.02107, 0
-11.6161, -5.33734, 5.07698, 0
-11.5604, -5.34273, 5.98319, 0
-11.5755, -5.32515, 5.84922, 0
-11.5732, -5.32064, 5.407, 0
-11.3065, -11.5657, 5.83154, 0
-11.3248, -5.4672, 5.34609, 0
-11.355, -5.51306, 5.83458, 0
-11.456, -11.1869, 5.79955, 0
-11.3279, -5.18957, 5.88837, 0
-11.3281, -5.19586, 5.6514, 0
-11.3199, -5.56136, 5.67896, 0
-11.2051, -11.4109, 5.24948, 0
-11.3379, -11.2433, 5.10422, 0
-11.4962, -5.05366, 5.45119, 0
-11.2656, -11.3433, 5.39356, 0
-11.273, -11.3634, 5.12015, 0
-11.317, -5.55669, 5.45334, 0
-11.4926, -5.05798, 5.21714, 0
-11.325, -11.2705, 5.85321, 0
-11.3321, -11.2375, 5.95249, 0
-11.3364, -11.2419, 5.38424, 0
-11.1628, -11.1877, 5.64654, 0
-11.1769, -11.2075, 5.12307, 0
-11.3265, -11.3548, 5.81858, 0
-11.5938, -10.9696, 5.66629, 0
-11.5982, -10.9737, 5.10404, 0
-11.1511, -11.4428, 5.51678, 0
-11.1462, -11.4386, 5.78815, 0
-11.3279, -5.56864, 5.90972, 0
-11.3156, -5.54969, 5.01176, 0
-11.1661, -11.5919, 5.32593, 0
-11.6955, -10.7959, 5.77289, 0
-11.2259, -5.30547, 5.02372, 0
-11.2056, -5.28201, 5.43795, 0
-11.2248, -5.30768, 5.65858, 0
-11.6159, -4.96547, 5.17779, 0
-11.5573, -5.00244, 5.33779, 0
-11.1722, -5.10006, 5.63057, 0
-11.1992, -5.05191, 5.42513, 0
-11.1163, -11.609, 5.0121, 0
-11.6495, -4.98375, 5.58912, 0
-11.5622, -4.96631, 5.98572, 0
-11.1517, -5.17687, 5.15599, 0
-11.5963, -10.9719, 5.38383, 0
-11.1681, -11.2281, 5.91935, 0
-11.3167, -5.55335, 5.23144, 0
-11.7334, -10.8088, 5.52031, 0
-4.5522, -17.3619, 3.84267, 0
1.17715, -17.2502, 4.49875, 0
-4.67731, -17.3389, 2.5009, 0
0.858128, -17.3066, 3.08362, 0
0.958839, -17.3131, 2.26358, 0
1.34472, -17.2794, 2.82893, 0
1.2172, -17.2893, 4.103, 0
-4.64951, -17.2958, 3.61203, 0
0.646652, -17.2812, 3.88659, 0
1.15057, -17.2505, 2.2731, 0
0.668595, -17.2328, 3.33921, 0
1.3543, -17.2843, 4.47412, 0
0.618899, -17.3133, 2.51599, 0
0.635491, -17.2836, 2.79186, 0
0.809995, -17.2925, 4.44903, 0
0.51645, -17.2884, 4.51175, 0
0.503189, -17.2858, 3.68233, 0
0.516716, -17.2506, 3.40327, 0
1.20202, -17.2719, 2.15883, 0
0.530404, -17.2268, 3.12534, 0
0.544185, -17.2116, 2.84791, 0
-4.68721, -17.3198, 2.97216, 0
0.898777, -17.2665, 3.61937, 0
0.88541, -17.2886, 2.79185, 0
1.21975, -17.2631, 3.41007, 0
0.529143, -17.22, 4.22798, 0
-4.59991, -17.2901, 2.84448, 0
1.16714, -17.2605, 3.98594, 0
-4.50258, -17.2828, 3.40107, 0
1.24138, -17.3117, 3.68858, 0
0.679322, -17.2184, 4.4295, 0
-4.49144, -17.2872, 3.11252, 0
1.01264, -17.3062, 3.31499, 0
-4.87328, -17.2626, 2.84669, 0
1.35391, -17.101, 3.83735, 0
0.652005, -17.2545, 3.06628, 0
0.835725, -17.1764, 2.33342, 0
1.36061, -17.1674, 4.46704, 0
-4.79749, -17.2228, 3.34763, 0
0.834447, -17.1501, 4.02153, 0
1.2066, -17.1359, 3.43075, 0
-4.77757, -17.2295, 3.05949, 0
0.834584, -17.1529, 3.7358, 0
1.17829, -17.1158, 4.89003, 0
1.181, -17.1551, 2.33328, 0
0.954216, -17.2647, 2.07363, 0
-4.28801, -17.3479, 2.91121, 0
0.834134, -17.1437, 4.59906, 0
1.04052, -17.267, 4.68271, 0
1.17863, -17.1207, 4.59834, 0
0.959035, -17.2886, 4.18642, 0
-4.74313, -17.3492, 3.51935, 0
1.1792, -17.129, 4.02132, 0
1.17893, -17.1251, 4.3088, 0
-4.75719, -17.2182, 3.62757, 0
0.834299, -17.1471, 4.30924, 0
1.1943, -17.1178, 2.03022, 0
0.854818, -17.1923, 2.02489, 0
0.833649, -17.1337, 4.88937, 0
-4.27286, -17.3444, 3.19534, 0
-4.90501, -17.2946, 3.42348, 0
0.997457, -17.2834, 3.89496, 0
1.26154, -17.134, 3.01303, 0
1.35888, -17.1773, 3.33516, 0
1.37523, -17.2095, 3.06081, 0
0.835457, -17.1709, 2.61108, 0
1.35677, -17.3483, 2.54895, 0
0.988099, -17.1338, 3.16588, 0
0.97881, -17.1554, 2.8924, 0
-4.25772, -17.341, 3.48017, 0
-4.43741, -17.3354, 2.49758, 0
1.33512, -17.2524, 3.1044, 0
0.737861, -17.1243, 3.85319, 0
1.17968, -17.1359, 3.45204, 0
-4.49784, -17.1773, 3.05427, 0
1.30766, -17.0776, 2.73403, 0
-5.38988, -17.3411, 2.5104, 0
-11.343, -17.2485, 4.83509, 0
-11.7659, -17.2597, 3.07439, 0
-11.7715, -17.2619, 3.80049, 0
-11.5548, -17.254, 3.1854, 0
-11.5941, -17.257, 4.31495, 0
-5.55395, -17.3181, 2.84191, 0
-11.4614, -17.3139, 2.45546, 0
-11.3662, -17.2624, 2.78, 0
-11.9595, -16.9574, 3.51863, 0
-11.0442, -17.6887, 2.33931, 0
-5.13131, -17.4321, 3.46607, 0
-11.4593, -17.0453, 4.01074, 0
-11.5055, -17.2074, 2.94634, 0
-5.17047, -17.4361, 2.88048, 0
-11.7413, -17.2516, 2.60346, 0
-5.67865, -17.2001, 3.75094, 0
-11.9463, -16.9268, 4.17913, 0
-11.4381, -17.2287, 3.19208, 0
-11.4803, -17.2105, 2.27965, 0
-11.0397, -17.5698, 2.00016, 0
-5.18188, -17.4342, 3.17275, 0
-11.4858, -17.2316, 3.46477, 0
-11.021, -17.5954, 3.32517, 0
-11.4913, -17.2065, 2.61189, 0
-11.6485, -17.1843, 2.33703, 0
-11.7892, -17.1725, 3.01241, 0
-11.7722, -17.2694, 4.70503, 0
-5.37345, -17.3012, 2.77855, 0
-11.8374, -16.8792, 4.82773, 0
-11.0111, -17.6905, 3.67159, 0
-11.6882, -17.2756, 4.51365, 0
-11.2208, -17.2358, 3.64948, 0
-12.0083, -16.9835, 2.52775, 0
-5.4667, -17.257, 3.04402, 0
-11.2412, -17.4732, 2.30144, 0
-11.674, -17.2089, 3.15203, 0
-11.3473, -17.2551, 4.15051, 0
-11.3543, -17.2657, 3.47492, 0
-11.6457, -17.0782, 4.15434, 0
-11.2288, -17.3899, 3.2937, 0
-11.6434, -17.0749, 4.49582, 0
-11.069, -17.5062, 3.47025, 0
-11.4904, -17.3001, 4.47732, 0
-11.2326, -17.4385, 2.63063, 0
-5.46551, -17.2532, 3.33945, 0
-11.5582, -17.1298, 3.64985, 0
-11.6594, -17.0983, 2.80813, 0
-11.2281, -17.346, 3.96171, 0
-11.6411, -17.0714, 4.83948, 0
-11.9415, -16.9532, 2.19574, 0
-11.4008, -17.2562, 4.80508, 0
-5.41477, -17.2827, 3.56265, 0
-11.8018, -17.0927, 3.80159, 0
-11.6653, -17.1069, 2.14305, 0
-11.2269, -17.4277, 4.66129, 0
-11.2482, -17.4829, 4.32998, 0
-5.75895, -17.2086, 3.18234, 0
-11.6872, -17.2953, 2.14188, 0
-11.3391, -17.1507, 4.18722, 0
-10.9965, -17.6476, 4.00078, 0
-11.5154, -17.068, 4.35247, 0
-11.0238, -17.6185, 2.99537, 0
-4.98997, -17.275, 4.19733, 0
-11.3319, -17.4692, 2.98979, 0
-5.58745, -17.2867, 3.64742, 0
-11.0618, -17.4872, 4.46918, 0
-5.44195, -17.1829, 2.88399, 0
-11.4308, -17.2971, 2.12135, 0
-5.40972, -17.1793, 3.16937, 0
-11.2366, -17.2023, 2.6637, 0
-11.3525, -17.263, 3.8124, 0
-11.2469, -17.2214, 2.0078, 0
-11.2555, -17.3546, 3.32412, 0
-5.57188, -17.2781, 3.93572, 0
-11.5213, -17.2167, 2.19175, 0
-11.9317, -16.9294, 2.858, 0
-11.2061, -17.5715, 4.50186, 0
-5.143, -17.349, 2.67363, 0
-5.71881, -17.2044, 3.46686, 0
-11.789, -17.2631, 2.29064, 0
-11.7352, -17.2525, 3.57298, 0
-11.2297, -17.4127, 2.96151, 0
0.768443, 19.3712, 2.25334, 0
-4.55028, 19.2462, 3.8146, 0
1.0814, 19.0316, 2.24369, 0
1.10109, 19.046, 2.91272, 0
-4.75196, 19.2198, 3.3322, 0
-4.66205, 19.1951, 3.09619, 0
-4.87371, 19.1824, 3.7094, 0
1.08854, 19.1364, 3.27542, 0
1.04144, 19.1152, 2.26151, 0
-4.60038, 19.1946, 3.42459, 0
1.45853, 19.0524, 3.24147, 0
-4.73999, 19.3626, 3.60198, 0
1.06841, 19.049, 3.91903, 0
1.42207, 19.021, 2.61927, 0
0.803772, 19.1666, 3.5397, 0
1.43849, 19.0404, 2.31566, 0
-4.75244, 19.3203, 2.79855, 0
1.60926, 19.16, 2.27722, 0
-4.83702, 19.4519, 2.76123, 0
0.567639, 19.1222, 4.0325, 0
-4.88249, 19.3973, 2.90988, 0
1.38018, 19.1038, 2.57577, 0
1.45927, 19.1042, 3.48956, 0
-0.0686432, 19.4153, 2.27052, 0
-4.26083, 19.2937, 3.07453, 0
-4.4344, 19.2882, 3.64626, 0
1.18863, 19.138, 4.17124, 0
1.04791, 19.0298, 4.70331, 0
0.223624, 19.1752, 2.23402, 0
1.42857, 19.0714, 2.24155, 0
1.03214, 19.0432, 4.31457, 0
-4.61848, 19.1952, 3.10886, 0
1.30437, 19.028, 4.24593, 0
1.42441, 19.0032, 3.85332, 0
-0.0317202, 19.3276, 2.57163, 0
0.308991, 19.3838, 2.22408, 0
1.01299, 19.1259, 4.77466, 0
0.016771, 19.2662, 3.48429, 0
0.803012, 19.1485, 4.48876, 0
1.44821, 19.0785, 3.79895, 0
-4.27689, 19.2883, 3.39612, 0
1.69755, 19.0973, 2.56866, 0
1.41646, 19.0226, 4.73954, 0
0.771238, 19.3505, 2.23698, 0
1.59371, 19.0719, 4.77286, 0
0.568475, 19.1445, 2.79683, 0
1.65664, 19.0543, 3.4848, 0
1.66639, 19.0606, 3.7936, 0
0.804387, 19.1812, 2.60499, 0
1.70077, 19.1258, 4.73807, 0
1.43759, 19.0589, 4.11072, 0
1.27347, 19.0269, 4.73776, 0
0.537798, 19.158, 2.18485, 0
1.44132, 19.0259, 3.54676, 0
1.70884, 19.1184, 2.87622, 0
1.427, 19.0401, 4.42414, 0
-0.0202262, 19.3027, 3.18372, 0
0.803363, 19.1568, 4.17098, 0
1.58275, 19.0363, 3.32816, 0
1.18883, 19.1413, 3.85434, 0
1.19027, 19.1645, 2.29581, 0
1.18806, 19.1289, 4.48887, 0
0.281666, 19.2984, 2.53264, 0
1.1878, 19.1247, 4.80981, 0
0.31971, 19.3297, 2.8364, 0
1.56102, 19.0328, 4.1254, 0
1.19007, 19.1613, 2.60501, 0
1.09556, 19.1172, 2.85267, 0
1.29631, 19.0268, 4.55844, 0
1.61905, 19.076, 4.58209, 0
0.625738, 19.1778, 2.33301, 0
1.68781, 19.0904, 4.4187, 0
1.68734, 19.0861, 2.26297, 0
0.797577, 19.199, 3.37628, 0
0.0408965, 19.2468, 4.71761, 0
-0.0335337, 19.3718, 4.11961, 0
0.664034, 19.1973, 3.25706, 0
-0.00835282, 19.3165, 3.80037, 0
-4.07794, 19.4123, 3.36741, 0
0.355777, 19.2915, 4.68581, 0
0.304842, 19.2612, 3.75708, 0
0.29352, 19.2955, 3.14521, 0
0.300491, 19.104, 4.38269, 0
0.223999, 19.2226, 3.47282, 0
0.239172, 19.1888, 3.15869, 0
0.584118, 19.1459, 3.72183, 0
0.618514, 19.2192, 3.10113, 0
1.10694, 19.0335, 3.58195, 0
1.38829, 19.1804, 2.86767, 0
0.327979, 19.2558, 4.25676, 0
0.695305, 19.2161, 4.50011, 0
0.705007, 19.2581, 4.18895, 0
1.18903, 19.1446, 3.53933, 0
0.583206, 19.2095, 4.67099, 0
1.01205, 19.2201, 3.85057, 0
1.00796, 19.2234, 2.92168, 0
-11.4057, -17.3123, 5.82152, 0
-11.7163, -17.2593, 5.84149, 0
-11.6062, -17.2525, 5.43418, 0
-11.6512, -17.3353, 5.15917, 0
-11.5169, -17.1794, 5.68005, 0
-10.9852, -17.5721, 5.00374, 0
-10.9858, -17.5539, 5.34266, 0
-11.2162, -17.3445, 5.68568, 0
-11.2171, -17.3682, 5.34106, 0
-11.3405, -17.2448, 5.18082, 0
-11.3378, -17.2407, 5.52902, 0
-11.6356, -17.0634, 5.53395, 0
-11.1535, -17.4672, 5.17736, 0
-10.9891, -17.669, 5.71349, 0
-11.4268, -17.2648, 5.15394, 0
-11.6323, -17.0586, 5.88504, 0
-11.6385, -17.0676, 5.18548, 0
-11.3555, -17.3119, 5.48823, 0
-11.3052, -17.3387, 5.87901, 0
-11.5535, -17.1194, 5.64517, 0
-11.906, -16.9102, 5.16779, 0
-11.8489, -16.8827, 5.49145, 0
-11.9003, -16.889, 5.83217, 0
-11.5605, -8.12245, 3.43473, 0
-11.5568, -11.4077, 4.51306, 0
-11.5296, -14.0002, 3.40949, 0
-11.5657, -11.3813, 2.88082, 0
-11.5522, -7.56693, 2.53969, 0
-11.5511, -7.68083, 2.43859, 0
-11.5503, -7.99016, 2.44101, 0
-11.5544, -7.54334, 3.45475, 0
-11.5513, -13.5035, 3.25497, 0
-11.5419, -7.97404, 3.56587, 0
-11.5306, -7.85507, 3.35528, 0
-11.5508, -8.28889, 2.44455, 0
-11.5062, -13.528, 3.33141, 0
-11.5096, -14.5741, 2.62291, 0
-11.5532, -5.3149, 4.76006, 0
-11.4943, -5.27453, 2.32354, 0
-11.3072, -5.40693, 3.09177, 0
-11.2989, -5.57051, 4.5136, 0
-11.3519, -5.59012, 2.70109, 0
-11.314, -5.54578, 4.79423, 0
-11.3653, -5.57927, 2.13084, 0
-11.5522, -5.24389, 4.18473, 0
-11.5382, -7.8653, 2.76908, 0
-11.3697, -5.58431, 2.33119, 0
-11.4142, -11.3764, 2.90095, 0
-11.3918, -11.3677, 2.38442, 0
-11.596, -8.4709, 3.36996, 0
-11.4028, -11.3719, 2.64198, 0
-11.6533, -8.29492, 3.55159, 0
-11.3722, -11.365, 4.46735, 0
-11.5611, -11.374, 2.33322, 0
-11.1253, -11.5744, 3.93914, 0
-11.5106, -5.17411, 2.95639, 0
-11.3306, -5.32087, 2.73543, 0
-11.3134, -5.30885, 4.4164, 0
-11.5377, -7.86594, 3.5082, 0
-11.321, -5.60461, 4.94147, 0
-11.5114, -13.6397, 2.74597, 0
-11.635, -11.0086, 2.17342, 0
-11.2207, -11.4521, 3.63768, 0
-11.2486, -11.5136, 3.12385, 0
-11.5819, -5.08318, 2.21119, 0
-11.6087, -5.16875, 3.25193, 0
-11.2148, -5.28409, 4.81221, 0
-11.5277, -7.80721, 3.01275, 0
-11.5712, -5.0649, 4.55999, 0
-11.2171, -11.242, 2.81684, 0
-11.5982, -5.0711, 4.79633, 0
-11.3653, -5.14701, 4.73284, 0
-11.6432, -14.4175, 3.82491, 0
-11.5448, -7.6434, 2.7391, 0
-11.5325, -7.62544, 3.51249, 0
-11.5487, -7.6018, 2.87016, 0
-11.584, -11.3731, 2.03745, 0
-11.2082, -11.572, 3.68654, 0
-11.3837, -5.16515, 2.59877, 0
-11.5589, -5.32067, 2.94626, 0
-11.5618, -11.4066, 2.58418, 0
-11.1205, -11.5615, 4.20011, 0
-11.3677, -5.20195, 3.34973, 0
-11.3491, -11.2544, 4.28269, 0
-11.3831, -5.209, 2.30986, 0
-11.2141, -11.4289, 3.89793, 0
-11.6322, -11.0059, 2.43225, 0
-11.5658, -7.64091, 2.94579, 0
-11.3635, -5.20002, 3.56194, 0
-11.3533, -11.2586, 4.0135, 0
-11.3856, -5.21015, 2.10552, 0
-11.3568, -11.2621, 3.4793, 0
-11.356, -5.19662, 4.21169, 0
-11.5642, -5.30413, 2.58956, 0
-11.6502, -14.419, 3.52856, 0
-11.2798, -11.3828, 4.84857, 0
-11.3601, -11.2653, 3.21535, 0
-11.5597, -8.0634, 2.73502, 0
-11.5366, -8.61147, 2.79605, 0
-11.5888, -7.50076, 3.37907, 0
-11.5595, -11.3854, 3.2685, 0
-11.1261, -11.6274, 4.74709, 0
-11.3575, -5.19731, 3.99269, 0
-11.5401, -8.33969, 2.67587, 0
-11.5645, -5.32186, 3.71799, 0
-11.2103, -11.4085, 4.16032, 0
-11.6294, -11.0032, 2.69217, 0
-11.3715, -11.2767, 2.17305, 0
-11.6633, -8.33518, 3.09491, 0
-11.5039, -13.49, 3.53323, 0
-11.64, -8.50637, 2.74303, 0
-11.1516, -11.5793, 2.13343, 0
-11.5141, -8.73772, 2.9985, 0
-11.1743, -11.5281, 2.47411, 0
-11.5276, -8.34658, 3.40614, 0
-11.5654, -5.32363, 4.30251, 0
-11.5356, -7.52434, 3.15549, 0
-11.5357, -13.5892, 2.99009, 0
-11.3438, -11.2491, 4.82889, 0
-11.354, -5.19571, 4.43281, 0
-11.2382, -11.4153, 2.07281, 0
-11.5199, -8.51736, 2.91882, 0
-11.5931, -5.29861, 3.8782, 0
-11.1418, -11.5031, 4.51826, 0
-11.6263, -11.0003, 2.95332, 0
-11.6607, -13.5157, 2.93519, 0
-11.5079, -8.72537, 3.46651, 0
-11.515, -11.1075, 4.55312, 0
-11.5153, -11.1264, 2.43345, 0
-11.4343, -5.4466, 3.27027, 0
-11.5231, -11.1227, 2.69338, 0
-11.415, -5.43173, 3.47755, 0
-11.534, -11.1219, 2.95551, 0
-11.389, -5.40787, 3.89954, 0
-11.5044, -11.127, 2.17427, 0
-11.4486, -8.07762, 2.97547, 0
-11.5833, -5.03592, 3.86972, 0
-11.5338, -8.50897, 3.45584, 0
-11.5673, -5.30719, 4.36295, 0
-11.561, -5.32352, 3.25588, 0
-11.2248, -5.35342, 2.96904, 0
-11.2484, -5.26598, 2.60973, 0
-11.3801, -5.39787, 4.11423, 0
-11.4173, -5.42521, 2.01476, 0
-11.4178, -10.9869, 3.86453, 0
-11.4818, -11.0096, 4.13293, 0
-11.2051, -5.09723, 4.1946, 0
-11.5624, -5.31859, 2.4616, 0
-11.4859, -14.4615, 3.441, 0
-11.5874, -11.2687, 4.25054, 0
-11.625, -11.0925, 3.60913, 0
-11.5339, -14.2098, 2.82938, 0
-11.5843, -11.0636, 4.62931, 0
-11.5425, -14.0285, 3.6059, 0
-11.2374, -5.27781, 4.00008, 0
-11.5577, -4.99909, 2.40853, 0
-11.4059, -14.4789, 3.04333, 0
-11.57, -11.2585, 3.99024, 0
-11.7699, -14.2445, 3.32311, 0
-11.7689, -13.9265, 3.04903, 0
-11.2291, -11.2282, 2.05997, 0
-11.1937, -11.2373, 4.08894, 0
-11.7823, -10.8305, 2.71371, 0
-11.7489, -10.8219, 2.96799, 0
-11.1932, -11.203, 3.83152, 0
-11.8256, -10.8479, 2.4575, 0
-11.742, -10.8095, 3.73021, 0
-11.5211, -13.9257, 2.76689, 0
-11.8261, -10.8426, 3.22417, 0
-11.6858, -10.8015, 4.23407, 0
-11.552, -8.56669, 2.49697, 0
-11.4417, -13.8123, 3.19412, 0
-11.736, -10.8186, 4.74908, 0
-11.4375, -11.2356, 3.32446, 0
-11.7247, -10.9923, 3.83995, 0
-11.6812, -10.959, 4.86942, 0
-11.7142, -10.9843, 4.09764, 0
-11.4442, -14.683, 3.18607, 0
-11.4418, -14.6701, 3.48472, 0
-11.4537, -13.7425, 2.90665, 0
-11.5549, -11.2506, 3.73063, 0
-11.5146, -14.4863, 2.78539, 0
-11.1359, -11.601, 3.42115, 0
-11.2055, -5.26374, 4.60336, 0
-11.6021, -5.16721, 3.04517, 0
-11.1993, -5.34697, 4.15581, 0
-11.5949, -5.16537, 2.83829, 0
-11.5443, -14.6204, 3.04275, 0
-11.1408, -11.5228, 4.78194, 0
-11.5529, -11.1319, 3.39937, 0
-11.5509, -8.6246, 2.99818, 0
-11.5506, -5.03891, 3.66157, 0
