X,Y,Z,I,
19.966, 3.19274, 4.9749, 36
22.0905, 3.17817, 5.54659, 23
22.3324, -3.31884, 5.14289, 21
22.2477, -0.630869, 5.64733, 22
19.1997, 4.64375, 5.3847, 14
22.3709, 1.9347, 5.04352, 10
24.678, -25.0379, 2.10806, 15
24.3481, -26.0513, 4.60121, 38
24.3244, -25.9188, 3.59731, 19
22.7293, -26.8763, 2.02893, 10
22.6633, -27.0139, 3.43026, 10
24.6082, -24.7797, 4.38557, 31
24.6962, -25.5347, 4.44574, 33
21.8526, -26.7614, 2.55238, 32
24.5633, -24.9256, 4.27852, 22
24.5446, -24.9422, 3.31029, 38
23.137, -25.9723, 3.15561, 15
22.481, -26.3377, 3.26274, 11
23.2858, -26.2458, 3.91725, 32
23.8465, -26.4689, 3.93711, 16
24.5487, -24.8003, 4.70819, 40
24.4996, -24.9495, 3.63934, 46
24.5171, -25.7573, 4.70965, 13
22.4971, -26.8107, 3.42376, 33
22.9556, -25.9516, 2.5308, 12
24.5336, -24.8846, 2.37311, 45
24.6333, -25.2201, 3.55001, 13
22.0749, -27.0827, 3.09138, 27
21.5414, -27.6985, 2.40629, 28
23.9136, -26.4138, 3.86213, 16
24.6538, -25.7642, 4.21532, 22
24.4576, -25.2245, 3.15541, 21
21.5752, -27.6189, 3.16254, 27
24.5531, -25.1308, 2.1073, 43
24.0577, -26.2661, 4.21581, 17
23.5761, -26.8093, 3.75006, 45
21.7983, -27.3358, 2.89381, 17
21.6084, -27.9842, 3.30421, 28
22.512, -27.8572, 3.79409, 17
21.7127, -28.1576, 3.59935, 17
24.4268, -25.0347, 3.73668, 45
23.8463, -26.6426, 3.12451, 47
24.2281, -26.1376, 3.53063, 41
21.5292, -27.9624, 2.97307, 17
23.0368, -26.7457, 3.09715, 26
24.4832, -24.9805, 2.88627, 43
24.0531, -26.3013, 3.52539, 41
22.6246, -27.6999, 3.74925, 28
21.2002, -27.6921, 2.84167, 42
24.3255, -25.1032, 2.56857, 45
22.9591, -28.0954, 3.75799, 16
22.9996, -26.8197, 2.69097, 28
24.4604, -25.0596, 4.31198, 23
24.4305, -25.9054, 4.27966, 28
21.5862, -27.5625, 2.69605, 28
23.1941, -27.9173, 3.93236, 23
22.8669, -26.1252, 3.03769, 16
23.1697, -25.896, 3.32064, 34
22.9417, -28.135, 3.49012, 14
22.6081, -27.8036, 3.19446, 43
22.6972, -27.7047, 3.66744, 17
24.7073, -25.4517, 4.71985, 13
22.0658, -28.0594, 3.81579, 28
22.5957, -26.7524, 3.05164, 13
24.4963, -25.0998, 3.06568, 40
21.4796, -27.6631, 2.91723, 44
22.8794, -28.2624, 3.77496, 16
22.7417, -26.8046, 2.76061, 17
21.3578, -27.7522, 2.66302, 42
24.1543, -26.2827, 3.95399, 13
22.7839, -26.0656, 2.82022, 27
24.3663, -25.1286, 3.56081, 43
24.3141, -25.1412, 3.78343, 42
22.5377, -27.0496, 2.69722, 34
21.266, -27.7188, 2.29278, 33
23.1915, -25.895, 4.17528, 16
23.617, -26.7767, 3.58719, 28
24.6498, -25.4019, 3.8047, 22
21.9293, -28.1278, 3.48978, 33
21.9162, -26.8261, 2.44897, 27
21.1056, -27.7777, 2.59421, 42
22.5635, -26.7678, 2.6298, 16
22.7338, -27.1317, 3.9953, 14
24.4312, -25.8662, 3.81005, 45
24.5465, -24.8995, 2.60863, 16
21.8825, -27.9591, 3.2693, 33
24.6227, -18.5746, 3.58142, 22
23.5706, -22.6482, 4.77613, 33
24.0638, -22.2921, 4.93705, 44
24.1185, -22.4399, 4.9387, 44
24.3751, -22.8053, 4.94503, 44
24.709, -24.6896, 3.05597, 13
21.7946, -15.1844, 4.9205, 13
23.779, -20.0309, 4.11084, 25
21.758, -15.6256, 3.13489, 21
22.9604, -22.0183, 3.90085, 25
24.147, -18.6651, 3.59202, 10
24.7297, -18.937, 3.84269, 12
21.6753, -15.5627, 3.10039, 62
22.7585, -21.9449, 3.755, 37
23.9449, -19.7534, 3.00716, 43
24.4677, -17.9061, 3.36271, 17
24.6394, -18.5986, 3.43717, 32
24.144, -19.6442, 3.70456, 11
24.6273, -19.173, 3.35147, 27
24.0723, -20.966, 3.73624, 12
23.2755, -21.9664, 4.78669, 15
24.0262, -19.7132, 3.22848, 25
24.5644, -17.9159, 3.57043, 27
21.6625, -15.5586, 4.35854, 58
23.6101, -23.3702, 4.91053, 16
24.7299, -24.5076, 3.96429, 32
24.4373, -21.4533, 4.68068, 43
23.6312, -23.5235, 4.63118, 24
24.0227, -20.5954, 3.60794, 33
21.6982, -15.6322, 2.37598, 50
24.0952, -19.3981, 3.2738, 13
24.4853, -17.7629, 3.52822, 17
24.1004, -21.6553, 4.43377, 15
24.7258, -19.9262, 3.3789, 35
22.7781, -21.2942, 4.27394, 21
24.3318, -20.7339, 3.80725, 18
24.1958, -20.0566, 4.29789, 50
24.386, -21.539, 4.20752, 26
24.5728, -24.576, 3.43766, 11
24.2273, -19.6064, 3.94637, 42
24.4555, -19.368, 3.38993, 46
24.6932, -19.0011, 3.62861, 21
24.5441, -21.8373, 4.46882, 50
21.7477, -15.3552, 4.18234, 13
24.1128, -19.7303, 3.73158, 12
21.6991, -15.5437, 4.682, 59
24.6236, -19.6599, 2.99344, 12
21.6667, -15.6327, 3.47369, 42
24.3183, -20.0753, 2.65269, 12
24.4218, -21.1413, 4.03277, 14
22.8449, -21.6606, 4.10373, 31
21.8477, -15.4128, 3.83437, 14
24.6499, -19.8249, 3.62755, 18
23.0959, -20.8947, 4.50114, 17
24.5619, -19.0881, 3.72322, 24
21.5897, -15.7646, 2.00158, 29
23.8516, -20.8545, 3.3961, 32
21.8672, -14.8814, 3.75728, 14
24.1452, -20.471, 3.10993, 43
24.5336, -20.5852, 4.52568, 30
24.7283, -18.3259, 3.64545, 31
21.7411, -14.8505, 2.097, 20
24.0695, -20.0754, 3.42254, 27
24.2103, -19.5859, 3.20502, 25
24.5729, -20.7135, 4.08343, 42
24.0994, -20.2617, 2.8075, 25
23.8588, -21.7609, 3.83515, 19
24.5784, -18.9223, 4.52348, 34
23.3074, -22.4242, 3.95692, 14
23.5153, -22.2967, 3.99591, 25
22.8841, -21.253, 3.84679, 24
21.8108, -15.4732, 2.31486, 42
24.1609, -20.5527, 3.59988, 42
24.6215, -19.402, 3.77494, 24
23.0613, -20.6893, 3.80944, 24
24.2994, -18.1733, 3.54917, 11
24.4982, -20.7699, 3.78828, 13
23.0951, -21.7481, 3.35773, 11
24.4819, -20.115, 3.22594, 32
23.8813, -19.732, 4.31731, 12
23.3338, -21.5833, 3.77422, 18
23.3471, -21.9566, 3.77088, 26
21.7973, -15.4907, 4.6605, 44
24.3355, -20.7537, 4.52545, 49
24.7202, -24.4495, 4.33175, 15
24.2621, -19.3333, 3.36961, 24
23.2151, -21.2309, 3.68353, 18
24.102, -18.8274, 3.64779, 21
23.4655, -22.5704, 4.79571, 34
24.4375, -21.9024, 4.81953, 19
21.8007, -15.4209, 2.53288, 9
24.2213, -20.3132, 3.60127, 33
22.7844, -20.916, 3.89342, 43
21.8501, -15.4521, 4.17881, 59
24.331, -20.0087, 3.25666, 42
23.7615, -19.7521, 4.26887, 41
21.81, -15.4185, 2.96948, 58
24.1744, -21.6135, 4.55804, 33
21.6302, -15.7516, 3.83378, 42
24.3119, -19.4445, 2.66114, 10
24.7467, -24.4825, 3.57897, 44
21.8478, -15.3601, 3.47755, 43
24.5271, -20.9156, 4.17634, 35
24.3117, -18.5159, 3.67732, 27
24.0671, -18.8615, 3.33949, 13
23.0599, -21.8448, 3.65364, 31
24.7218, -24.6935, 2.76244, 17
23.5168, -21.3105, 3.77101, 18
24.649, -24.59, 2.27355, 10
24.3584, -18.1813, 3.24352, 11
23.3998, -21.3918, 3.728, 25
24.5096, -19.9483, 4.55613, 18
24.5604, -18.2331, 3.38816, 17
24.7065, -17.7179, 3.37861, 34
24.3257, -21.0482, 4.25313, 25
24.7469, -24.0555, 3.3443, 11
21.7947, -15.4211, 4.07794, 59
21.6166, -15.6428, 2.20631, 41
23.9346, -20.7816, 3.39013, 32
24.6541, -21.0911, 4.85937, 12
22.9574, -21.0284, 3.9981, 13
24.5558, -19.6778, 3.99771, 23
23.0575, -21.8691, 4.15306, 18
21.7045, -15.3962, 2.29446, 11
24.0467, -20.3372, 3.7255, 45
24.6217, -18.4799, 4.01788, 31
24.6778, -19.5863, 3.62055, 18
22.8752, -21.5786, 4.47556, 28
24.5901, -21.4558, 4.71813, 19
24.2854, -18.594, 3.15037, 42
24.1921, -20.4541, 3.76224, 18
24.3967, -19.8367, 4.56999, 34
22.8581, -20.8754, 4.08032, 42
24.1278, -20.1268, 3.74049, 18
21.6278, -14.9818, 2.52099, 20
23.6053, -22.2916, 4.62711, 33
21.7512, -15.6197, 2.19208, 63
22.7615, -21.0973, 4.45859, 27
24.187, -20.9178, 4.47381, 31
21.6841, -14.919, 4.61572, 20
24.4501, -20.7253, 4.69568, 12
24.0479, -20.3862, 3.4377, 18
24.2096, -20.3675, 4.44921, 24
23.0341, -21.2978, 4.49529, 13
23.2571, -22.1118, 4.19279, 29
23.2639, -22.4967, 4.3748, 33
21.5156, -15.7995, 2.59849, 20
24.0274, -20.9963, 3.91051, 21
21.6914, -15.6167, 2.73119, 50
23.9905, -20.6737, 3.88963, 43
23.4092, -22.3504, 3.53103, 18
23.9447, -20.3531, 3.86862, 43
23.3756, -22.3386, 4.50239, 31
23.121, -21.6845, 3.71266, 10
23.7146, -19.7052, 3.83058, 12
24.364, -18.0458, 3.45866, 14
24.2686, -19.8732, 4.71815, 36
24.5057, -18.9442, 4.66191, 12
23.2765, -22.4143, 4.12835, 31
24.4345, -17.8496, 3.52536, 17
21.6941, -15.6233, 4.17441, 51
24.7145, -24.4283, 3.82904, 15
22.87, -21.9064, 4.31637, 12
21.699, -15.6057, 3.3971, 50
23.2273, -20.8857, 4.27989, 12
24.4721, -20.3789, 3.89426, 14
21.6765, -15.5763, 3.76054, 56
24.7411, -24.4097, 3.56396, 28
24.1818, -20.2981, 2.75845, 31
22.8828, -20.829, 3.85888, 36
24.3836, -20.1305, 3.596, 33
24.5296, -20.8668, 3.9519, 49
23.1662, -21.7491, 4.20623, 12
24.334, -20.1136, 3.05635, 27
24.1583, -20.9803, 3.74238, 25
23.1988, -21.2733, 3.75554, 32
24.5542, -20.8191, 3.62185, 12
24.7498, -20.4722, 4.18854, 19
24.0744, -20.1858, 2.67542, 29
24.1218, -19.4792, 2.59327, 10
24.5036, -17.7911, 3.01711, 9
22.9242, -22.137, 4.29813, 27
24.2952, -20.314, 3.08792, 32
22.8441, -20.7489, 4.1028, 22
24.669, -19.2288, 3.84084, 45
23.0612, -20.8256, 4.25057, 11
21.8446, -15.0365, 3.27686, 9
24.2139, -20.0208, 4.62429, 23
24.0549, -23.1582, 4.15386, 10
23.8705, -19.6574, 4.04984, 10
21.7372, -14.8617, 2.8236, 9
24.0143, -20.2295, 3.96867, 12
24.3585, -18.5347, 3.96444, 12
24.2455, -22.962, 4.65298, 13
24.657, -22.3592, 4.72746, 13
24.2074, -22.1087, 4.93887, 33
22.6726, -20.9257, 3.51026, 27
22.8927, -20.8155, 4.44167, 10
24.2139, -20.4144, 3.29386, 42
24.4808, -22.5902, 4.5549, 9
24.6355, -18.8732, 3.33394, 27
23.1711, -22.1409, 4.23252, 27
23.4349, -21.855, 4.18152, 9
23.801, -22.1773, 4.82853, 34
24.0172, -21.8383, 4.8527, 46
24.1978, -20.1093, 4.92831, 34
23.9086, -21.8502, 4.52972, 24
24.2767, -21.9294, 4.54021, 24
24.7137, -24.6486, 4.43021, 9
24.3501, -19.6467, 3.55459, 23
24.5314, -19.1008, 4.58274, 23
21.589, -15.7583, 3.12332, 9
23.9652, -20.9442, 4.08056, 14
24.1567, -18.7986, 3.57872, 11
24.744, -21.7223, 4.45293, 32
24.2396, -19.8143, 4.28654, 10
22.969, -22.0855, 4.40244, 10
24.0937, -19.2889, 3.27134, 26
23.2939, -20.8891, 4.07973, 13
24.1712, -22.1193, 4.60891, 14
24.4009, -19.7931, 3.77384, 14
24.0301, -21.3002, 4.15455, 14
21.6423, -16.0805, 2.25468, 12
-12.6198, -16.2852, 4.40762, 6
-12.6007, -15.2592, 4.74603, 2
-12.1704, -17.7241, 4.32637, 6
-10.156, -17.7984, 4.38351, 6
-12.655, -16.0262, 4.28313, 3
-12.677, -16.1193, 4.11984, 7
-12.6145, -15.2336, 4.11438, 6
-12.6028, -17.8156, 4.52317, 69
-12.6776, -16.8681, 4.01629, 4
-12.6554, -15.6836, 4.3448, 3
-12.5996, -17.8707, 4.56753, 12
-12.6184, -18.1807, 2.02238, 10
-12.6466, -17.8171, 3.7678, 26
-12.6573, -16.3006, 3.90049, 7
-9.76952, -17.7689, 3.5806, 2
-7.91341, -17.8427, 3.80185, 21
-12.6281, -17.8172, 3.02861, 27
-12.5451, -17.8176, 4.66868, 27
-12.4556, -18.2071, 2.4885, 13
-11.5459, -17.7743, 3.19724, 7
-12.6496, -17.186, 4.22528, 9
-12.5774, -15.0524, 3.93808, 8
-9.1659, -17.8316, 4.05426, 5
-11.5257, -17.7688, 4.03759, 8
-10.5546, -17.8036, 3.9616, 8
-5.25119, -17.9678, 2.42919, 2
-7.38099, -17.8596, 2.08543, 9
-7.43958, -17.9824, 4.92918, 3
-10.1555, -17.7245, 2.96185, 4
-8.01559, -17.8192, 3.27764, 7
-10.2313, -17.7916, 4.2511, 3
-8.18297, -17.8161, 4.48334, 13
-9.73343, -17.8904, 4.65188, 4
-8.00421, -17.7627, 3.60171, 13
-8.09814, -17.8381, 4.22399, 13
-7.90259, -17.8071, 3.32856, 3
-7.32275, -17.907, 4.78238, 7
-9.82879, -17.7683, 3.07307, 26
-9.42371, -18.0002, 2.32645, 4
-5.14075, -17.9565, 3.13548, 4
-5.98678, -18.043, 3.83276, 7
-8.05468, -17.868, 3.53773, 10
-9.17221, -17.9172, 3.30108, 4
-5.03807, -17.9255, 3.94251, 3
-7.30518, -17.8884, 3.56314, 4
-7.86166, -17.7562, 2.20264, 7
-9.64845, -17.7707, 3.71871, 3
-13.072, -17.8894, 4.361, 12
-11.6969, -17.76, 3.2516, 15
-8.37507, -17.9021, 3.95984, 5
-6.3797, -17.9814, 4.05378, 3
-12.4917, -18.024, 3.26923, 11
-11.6552, -17.9069, 2.61088, 6
-9.59288, -17.8606, 3.13483, 9
-6.53864, -17.8422, 4.25606, 5
-10.7496, -17.829, 3.6792, 3
-12.2914, -17.8889, 4.76899, 15
-12.9043, -17.7619, 3.33158, 19
-8.96541, -17.8951, 3.51658, 3
-9.73023, -17.7865, 2.1007, 3
-6.85708, -17.9147, 3.90422, 4
-12.6014, -18.175, 4.36593, 9
-6.17301, -17.9604, 3.37307, 6
-12.6163, -18.0416, 2.47801, 16
-9.75589, -17.6899, 4.81045, 49
-8.61706, -17.9706, 3.40763, 4
-6.73395, -17.9403, 3.67669, 4
-12.8464, -17.8554, 2.78788, 16
-12.6243, -18.1766, 4.127, 7
-6.81994, -17.9421, 3.74665, 7
-7.98411, -17.9465, 3.04828, 11
-9.08101, -17.8031, 4.64421, 11
-11.5456, -17.8102, 4.31588, 6
-11.6536, -17.6889, 4.69942, 9
-7.94185, -17.8404, 4.48879, 12
-9.77488, -17.8161, 4.26228, 11
-5.68954, -17.9023, 3.83629, 3
-8.38248, -17.8368, 2.12661, 3
-9.81411, -17.8516, 3.35631, 7
-7.88146, -17.8958, 3.46689, 13
-8.63081, -17.8456, 2.43894, 2
-5.92492, -17.9267, 4.10106, 3
-7.96117, -17.9123, 3.89612, 10
-11.7388, -17.8713, 2.23486, 11
-6.70205, -17.8589, 3.44413, 4
-12.8535, -17.8909, 2.42537, 16
-8.88842, -17.8073, 2.60871, 3
-11.0411, -17.8259, 2.5365, 4
-12.5862, -18.1401, 3.53064, 17
-10.1649, -17.7769, 4.83396, 12
-5.63887, -18.0174, 3.46365, 5
-9.86537, -17.879, 2.91982, 12
-7.88007, -17.9076, 3.36105, 11
-13.0519, -17.7408, 3.65799, 9
-6.41934, -17.8883, 3.69438, 5
-8.26702, -17.8682, 3.37122, 8
-12.5941, -18.0406, 2.63108, 33
-7.48607, -17.849, 4.90017, 4
-9.58097, -17.7998, 4.62074, 12
-11.751, -17.8, 4.10845, 13
-10.6708, -17.7413, 3.95622, 7
-6.61285, -17.8481, 4.54354, 7
-12.8851, -17.8144, 3.53089, 29
-12.7004, -17.7847, 2.42739, 23
-5.84557, -18.047, 4.8805, 7
-7.9485, -17.9013, 4.55038, 13
-8.65311, -17.9177, 3.74804, 4
-6.53376, -17.8613, 4.0237, 5
-12.8168, -17.8845, 2.97661, 8
-9.67692, -17.7093, 3.81278, 34
-13.0813, -17.9243, 4.8187, 12
-11.7358, -17.6982, 3.51189, 10
-9.94581, -17.8493, 2.24997, 5
-5.02773, -17.9198, 4.23134, 7
-7.26846, -18.1156, 3.99118, 10
-7.94658, -17.8436, 2.28488, 9
-6.31812, -18.0599, 2.07975, 4
-12.896, -17.7656, 4.40006, 11
-10.853, -17.7356, 2.61247, 4
-6.11209, -18.0184, 4.65474, 7
-12.9005, -17.7238, 2.38365, 12
-8.06421, -17.8785, 4.41536, 11
-9.96627, -17.9758, 2.58932, 4
-5.8216, -17.9782, 3.34555, 3
-7.94748, -17.8572, 3.14855, 11
-9.71116, -17.8349, 4.2905, 5
-11.8147, -17.7222, 3.9423, 12
-8.59877, -17.8496, 4.93917, 5
-10.8645, -17.7103, 4.55466, 3
-12.9484, -17.7142, 4.08935, 19
-11.8512, -17.7524, 2.93588, 4
-9.77441, -17.7847, 3.29583, 8
-7.92335, -17.8247, 3.4653, 13
-9.34036, -17.8977, 4.75917, 12
-12.9342, -17.7762, 4.65096, 28
-8.50932, -17.8486, 4.79404, 3
-10.5937, -17.8113, 4.53272, 3
-12.6477, -17.8421, 4.31625, 28
-13.0998, -17.7696, 4.69426, 6
-6.65708, -17.8569, 3.09175, 3
-12.9749, -17.857, 2.0822, 16
-8.82406, -17.9025, 2.79994, 9
-9.68477, -17.8995, 2.11093, 3
-5.33082, -17.9404, 2.80614, 9
-8.9321, -17.8503, 4.72775, 3
-5.32303, -17.8146, 3.87077, 3
-9.56639, -17.7789, 3.18568, 10
-11.6019, -17.7945, 2.90002, 11
-8.94902, -17.7751, 2.08999, 3
-6.21027, -17.884, 3.78101, 3
-8.43758, -17.8641, 3.61638, 10
-12.5232, -18.0634, 3.02921, 30
-12.9276, -17.7317, 2.89528, 11
-8.59119, -17.8081, 3.46557, 8
-10.871, -17.8665, 4.62515, 3
-11.5438, -17.7487, 3.04797, 4
-12.7801, -17.865, 4.31405, 12
-8.8891, -17.8726, 4.06842, 3
-5.27442, -17.8344, 3.35312, 3
-6.84471, -17.9011, 4.38123, 5
-10.9998, -17.8614, 3.97844, 5
-11.7044, -17.7143, 2.2727, 12
-13.1347, -17.8572, 3.69033, 10
-12.5332, -18.21, 2.71683, 7
-6.66368, -17.7746, 3.72073, 3
-8.11447, -17.953, 4.7214, 7
-10.8845, -17.7958, 2.87011, 10
-12.9751, -17.7053, 2.63491, 30
-11.9087, -17.7581, 4.11292, 7
-7.89919, -17.8236, 4.71007, 10
-9.99854, -17.8402, 4.48064, 8
-7.52074, -17.8474, 3.33545, 3
-9.03054, -17.9149, 4.47913, 3
-5.44044, -17.7816, 3.55793, 3
-7.04311, -17.8849, 4.85672, 6
-11.6773, -17.7964, 2.73046, 11
-9.71137, -17.8325, 2.98462, 24
-5.90319, -17.9224, 4.49049, 5
-8.65133, -17.8117, 2.60718, 2
-12.7825, -17.7813, 2.02624, 16
-8.07136, -17.9407, 4.24726, 10
-9.80689, -17.9992, 2.20912, 4
-5.79534, -17.9234, 2.56936, 7
-7.94524, -17.9924, 2.52965, 10
-7.52352, -17.9407, 4.14374, 3
-8.14492, -17.8457, 2.81368, 9
-11.7339, -17.8546, 3.68498, 9
-12.5267, -18.2129, 3.04069, 8
-6.44434, -17.9001, 4.70563, 5
-11.0265, -17.7781, 2.55919, 2
-12.6511, -17.8753, 3.97724, 15
-8.57619, -17.9007, 3.81283, 4
-12.9451, -17.8657, 3.4183, 7
-11.5412, -17.7578, 2.02924, 10
-8.00966, -17.832, 2.00105, 11
-9.74031, -17.8656, 3.27108, 14
-9.37884, -17.8573, 3.05382, 4
-5.13927, -17.9747, 3.61638, 4
-11.0702, -17.842, 3.45265, 4
-12.5701, -18.0006, 4.87032, 15
-5.54164, -17.8906, 4.72607, 7
-7.97572, -17.8307, 2.97773, 13
-8.58591, -18.0165, 2.14491, 4
-10.3077, -17.8681, 2.04441, 3
-7.96828, -17.9389, 2.45425, 10
-6.0437, -17.9803, 2.55794, 9
-12.6417, -17.823, 2.1321, 25
-7.89688, -17.8633, 4.2164, 13
-9.86297, -17.9712, 4.03053, 6
-9.42779, -17.7784, 3.06206, 4
-6.74424, -18.0168, 4.71161, 5
-12.9024, -17.8616, 4.00656, 11
-8.72806, -17.8769, 4.63775, 5
-11.4597, -17.7659, 2.77604, 11
-8.05442, -17.9302, 3.36037, 9
-7.90909, -17.8733, 2.18159, 10
-7.15444, -17.8568, 4.18861, 4
-7.92651, -17.8404, 2.78492, 7
-9.98808, -17.8073, 2.40098, 10
-11.534, -17.8593, 3.62539, 10
-5.13552, -17.9538, 3.30189, 4
-5.90025, -17.7721, 4.11724, 2
-7.97962, -17.847, 3.79182, 10
-8.46388, -17.8433, 2.3666, 3
-7.91449, -17.8996, 3.79625, 10
-9.86686, -17.8815, 3.618, 10
-7.41572, -17.936, 3.77209, 7
-7.98959, -17.7723, 2.31413, 10
-9.71708, -17.9068, 3.6197, 10
-8.32996, -17.8753, 2.21947, 9
-7.29129, -17.8365, 4.27795, 3
-11.2978, -17.745, 3.62584, 10
-12.5644, -18.0947, 2.18428, 15
-10.987, -17.7613, 4.65215, 12
-11.6788, -17.9305, 2.53501, 7
-5.48269, -18.0156, 3.41906, 9
-5.55078, -18.0252, 2.0129, 9
-8.50472, -17.8833, 2.46133, 5
-6.74949, -17.9823, 4.47221, 5
-12.8114, -17.9339, 3.52956, 11
-11.5104, -17.8036, 2.49078, 8
-8.4933, -17.8729, 4.8042, 13
-12.6308, -17.8543, 4.06251, 34
-12.591, -18.1989, 3.60606, 8
-9.00264, -17.9605, 2.76533, 10
-6.91466, -17.8941, 4.16598, 7
-12.6539, -18.2181, 4.90546, 12
-11.8425, -17.7185, 2.1292, 11
-9.08863, -17.8928, 3.94687, 5
-11.4828, -17.805, 4.65394, 7
-12.6169, -15.8422, 3.50809, 10
-8.04148, -17.863, 2.12481, 13
-7.89443, -17.8283, 4.07001, 9
-12.0084, -17.8482, 3.66617, 9
-9.97709, -17.8346, 3.80887, 10
-8.01169, -17.9336, 2.61738, 10
-12.3664, -18.0974, 2.02745, 33
-7.17941, -17.8559, 4.38056, 5
-7.92386, -17.8066, 3.00511, 7
-4.99856, -17.9996, 4.83702, 7
-9.94, -17.8466, 2.78786, 9
-9.64461, -17.74, 4.86776, 37
-11.7013, -17.7554, 4.36006, 9
-7.85904, -17.9847, 2.8279, 10
-9.7807, -17.8529, 2.31094, 9
-10.9251, -17.8155, 4.26896, 3
-12.8869, -17.7696, 3.88999, 12
-8.45043, -17.8163, 3.80659, 3
-12.5836, -17.8186, 3.15468, 39
-11.0851, -17.8915, 2.78087, 2
-9.02497, -17.9215, 2.97663, 3
-12.6407, -18.1908, 4.01359, 12
-9.12169, -18.0197, 2.52895, 3
-12.6336, -18.1575, 3.26356, 10
-8.5398, -17.7493, 3.43928, 3
-12.6694, -17.8227, 2.70763, 25
-10.403, -17.8, 2.88561, 9
-7.94296, -17.9304, 4.70264, 9
21.8478, -25.2786, 5.96906, 14
24.5469, -24.7722, 5.13762, 33
23.1328, -27.2062, 5.9116, 27
23.0453, -25.0821, 5.97622, 13
24.5343, -24.9061, 5.56908, 10
24.0681, -23.8641, 5.34409, 11
24.4821, -22.8239, 5.59346, 12
24.4294, -22.6555, 5.63542, 37
24.5644, -23.3172, 5.71098, 37
23.9393, -21.7061, 5.77001, 35
24.5125, -24.5638, 5.93809, 54
24.2698, -23.6348, 5.5967, 33
24.5885, -21.4526, 5.45816, 37
24.151, -23.1882, 5.47385, 50
21.6988, -15.8053, 5.81574, 52
24.7261, -24.5405, 5.27683, 43
23.941, -22.7735, 5.08878, 18
24.7113, -24.3953, 5.53213, 25
21.6403, -15.6765, 5.6752, 61
23.9279, -22.0755, 5.40857, 54
24.3586, -22.9378, 5.08508, 18
24.6088, -21.1527, 5.0455, 12
24.5079, -23.3895, 5.38368, 20
21.5655, -15.757, 5.18901, 43
24.6533, -24.3671, 5.83125, 38
24.2761, -21.5844, 5.0122, 54
23.7925, -22.2232, 5.4059, 11
23.4718, -22.483, 5.00591, 36
24.6741, -23.0565, 5.67721, 20
21.638, -15.6457, 5.44694, 59
21.8155, -15.3655, 5.38942, 24
24.0541, -23.1943, 5.5144, 24
24.7116, -21.335, 5.6621, 26
21.7981, -15.537, 5.19503, 59
24.4438, -21.8473, 5.15912, 9
21.7281, -14.9527, 5.97272, 11
24.1028, -23.1979, 5.88738, 20
21.8023, -15.4909, 5.62663, 60
24.3651, -21.4746, 5.43943, 12
24.1975, -23.5393, 5.3401, 39
21.6657, -15.6303, 5.03953, 44
24.2703, -23.3278, 5.60302, 33
24.0909, -23.5621, 5.52948, 37
24.3738, -23.563, 5.19395, 13
23.5163, -22.1086, 5.22596, 9
21.8457, -15.4192, 5.76051, 24
24.22, -23.137, 5.57559, 56
24.5161, -22.8583, 5.16362, 18
24.6786, -24.4549, 5.68634, 39
21.8446, -14.9021, 5.12408, 20
24.4898, -22.2838, 5.25361, 24
24.2346, -19.9297, 5.06162, 38
24.6251, -22.6164, 5.15775, 20
24.0336, -21.7924, 5.00385, 19
21.7098, -15.0257, 5.78152, 7
24.7191, -21.2442, 5.36112, 43
24.1802, -23.2265, 5.92307, 39
23.7193, -21.9912, 5.72613, 26
24.1579, -23.2774, 5.24733, 13
24.1123, -23.6358, 5.16543, 39
24.6195, -21.9911, 5.33814, 26
24.2279, -23.0937, 5.20156, 13
24.3848, -22.7056, 5.87153, 39
24.697, -21.8543, 5.94722, 12
23.4492, -23.4325, 5.59684, 11
21.5322, -15.8102, 5.41397, 14
23.5762, -23.3023, 5.64415, 10
-12.5507, -15.0389, 5.88784, 2
-6.655, -18.044, 5.79647, 4
-5.24518, -17.8997, 4.98698, 5
-6.00371, -17.9222, 5.92126, 2
-7.99194, -17.7617, 5.64681, 4
-10.2802, -17.7178, 5.33962, 3
-6.10606, -17.9452, 5.09866, 3
-9.77129, -17.6305, 5.79457, 4
-7.92828, -17.8014, 5.8115, 4
-11.9275, -17.768, 5.0331, 6
-9.81015, -17.7332, 5.32327, 8
-12.7734, -17.1499, 5.89375, 3
-8.82786, -17.7672, 5.78746, 2
-12.9092, -17.7023, 5.21065, 16
-6.92257, -17.9342, 5.80326, 9
-12.6203, -15.7487, 5.20668, 6
-7.00198, -17.8419, 5.67567, 2
-6.30699, -17.9297, 5.76918, 3
-9.75526, -17.6494, 4.97925, 57
-12.591, -18.1508, 5.02086, 8
-8.97599, -17.7474, 5.66482, 2
-7.09996, -17.8572, 5.80431, 9
-9.02487, -17.8239, 5.23613, 8
-12.6009, -17.9631, 5.851, 21
-12.6176, -18.2232, 5.46763, 12
-10.847, -17.8839, 5.82563, 4
-12.9409, -17.913, 5.3363, 15
-11.0577, -17.8179, 5.71927, 2
-7.03485, -17.9924, 5.37446, 2
-12.6068, -18.2605, 5.97625, 16
-7.65119, -17.9395, 5.81647, 5
-12.6998, -17.8861, 5.44415, 12
-12.6334, -15.7853, 5.99669, 3
-9.38548, -17.6909, 5.75042, 6
-12.664, -16.014, 5.54591, 3
-12.9039, -17.8795, 5.72273, 15
-5.97305, -17.8907, 5.6296, 5
-10.093, -17.881, 5.07114, 2
-12.5883, -18.2056, 5.70514, 15
-12.615, -17.9369, 5.2438, 16
-12.6632, -15.181, 5.83499, 9
-8.7895, -17.7562, 5.1027, 3
-5.66774, -17.9629, 5.17619, 2
-7.22151, -18.0143, 5.21008, 3
-5.09883, -17.9554, 5.4994, 7
-5.4833, -17.9244, 5.72484, 2
-7.43176, -17.8798, 5.40331, 2
-10.0733, -17.6239, 4.99343, 14
-8.12258, -17.8386, 5.45544, 2
-7.91433, -17.913, 5.21202, 10
-5.78609, -17.9722, 5.46704, 4
-12.9269, -17.8656, 5.15621, 15
-6.51381, -17.8701, 5.94585, 5
-8.53988, -17.7723, 5.99836, 2
-12.6622, -17.8232, 5.39077, 10
-6.52145, -17.8268, 5.61607, 5
-10.6528, -17.8057, 5.17146, 2
-12.6416, -17.9459, 5.61024, 16
-12.6128, -17.8068, 5.95033, 13
-8.73807, -17.842, 5.98982, 4
-12.8431, -17.7635, 5.25245, 28
-10.8804, -17.7612, 5.68688, 6
-9.5455, -17.7538, 4.96636, 3
-8.37088, -17.8026, 5.13882, 3
-8.35057, -17.7807, 5.46946, 2
-8.21293, -17.7459, 5.12722, 5
-7.20328, -17.9451, 5.28311, 3
-7.93757, -17.8567, 5.51738, 2
-5.68829, -17.929, 5.71476, 2
-5.89012, -17.9317, 5.41798, 3
-12.9445, -17.7179, 5.63399, 16
-10.8258, -17.7693, 5.90893, 6
-11.6857, -17.7729, 5.69331, 6
-9.60689, -17.7459, 5.78698, 5
-11.5985, -17.7297, 5.29757, 5
-12.6382, -17.804, 5.66437, 18
-7.64132, -17.9177, 5.23032, 2
-10.5078, -17.7373, 5.35279, 3
-12.5465, -17.802, 5.22022, 37
-8.38089, -17.774, 5.81949, 5
-6.40895, -17.8391, 5.94558, 5
-7.71881, -17.8132, 5.20151, 3
-5.65227, -17.8263, 5.36418, 3
-9.73648, -17.79, 5.33549, 8
11.7656, -8.87931, 2.89545, 20
11.8917, -13.6278, 4.88968, 5
11.7843, -13.4636, 3.92239, 9
11.9459, -13.7941, 4.80625, 5
12.0773, -12.1208, 3.04065, 27
11.7903, -13.1324, 3.01702, 9
12.1212, -6.08323, 2.37527, 8
11.9156, -9.07762, 2.75994, 7
11.8542, -14.2901, 4.45802, 4
11.8128, -9.15675, 2.72555, 24
11.8848, -13.5593, 4.47562, 8
12.1786, -6.54572, 2.03976, 5
12.1743, -6.51227, 3.50794, 6
12.2161, -6.65457, 3.87424, 9
11.953, -13.1115, 3.30222, 5
12.1027, -5.99745, 3.16278, 3
12.0949, -12.0764, 4.01292, 9
11.8182, -10.5338, 2.94438, 3
12.1178, -12.143, 4.08715, 27
12.0717, -12.1429, 4.73836, 29
12.0906, -12.0813, 3.3275, 19
12.1394, -6.46056, 2.44238, 3
12.1878, -6.45795, 2.91212, 6
11.9579, -9.70821, 4.63269, 4
12.1536, -6.37758, 3.81665, 28
11.9071, -9.6915, 3.47398, 7
12.0954, -12.1106, 2.35111, 9
12.0321, -12.0801, 2.82736, 6
11.8486, -10.5928, 2.78514, 4
11.8573, -11.1766, 4.53682, 4
11.8262, -11.2784, 2.40979, 4
11.985, -6.61666, 2.91808, 3
11.9389, -9.92491, 2.0829, 8
11.9267, -9.96622, 4.92591, 3
12.1445, -6.08796, 2.63204, 8
12.1762, -6.4629, 4.46547, 11
11.9645, -10.7504, 4.37128, 6
12.161, -12.2391, 4.68665, 12
11.9834, -12.4584, 3.1391, 17
11.7609, -8.78677, 2.62911, 106
11.9088, -9.64762, 3.23138, 8
11.9786, -12.4605, 4.3896, 14
11.9226, -8.49228, 3.29738, 4
11.8374, -10.3702, 3.23993, 4
11.9135, -10.5956, 4.20828, 8
12.0819, -5.99537, 4.30913, 22
11.9343, -7.53589, 4.27574, 7
11.9125, -7.76509, 4.27102, 7
12.0737, -5.08369, 3.94752, 3
11.9278, -8.26191, 2.55901, 4
12.0432, -4.95083, 2.43569, 4
11.6776, -12.4262, 3.99063, 37
11.9157, -12.5146, 2.31193, 17
11.8448, -10.2437, 2.10076, 8
11.9876, -5.48314, 2.60787, 7
11.8564, -9.9139, 3.03341, 80
11.7479, -6.13911, 3.41027, 9
12.2315, -6.36996, 4.79461, 8
11.9319, -10.9973, 4.17952, 9
12.1488, -6.08254, 4.48587, 11
12.2417, -12.1627, 2.92918, 12
12.0578, -12.1376, 3.64375, 10
11.984, -7.43278, 2.83324, 11
11.8506, -10.0892, 2.57614, 16
11.8451, -9.44286, 2.2714, 8
11.7889, -6.10614, 4.0691, 13
11.9934, -12.515, 4.14131, 12
11.8903, -14.2601, 4.80823, 9
12.1899, -6.53232, 2.53098, 4
12.0279, -7.02488, 3.92298, 3
12.1974, -12.1138, 4.86932, 28
11.997, -10.0083, 3.96921, 11
12.0282, -5.46454, 4.62725, 3
11.926, -8.13763, 3.46549, 4
11.9237, -12.4518, 2.66598, 37
11.9522, -12.4878, 3.25142, 9
11.7054, -10.0494, 2.11793, 4
12.0126, -5.57095, 4.71076, 3
12.1428, -6.57764, 3.35416, 9
12.1696, -12.1356, 3.83584, 27
11.9357, -6.79281, 2.97963, 8
11.9551, -7.24695, 4.92832, 3
11.859, -9.70486, 2.08623, 8
11.763, -14.2393, 3.53424, 9
11.8255, -5.93735, 3.02956, 8
12.1875, -6.431, 4.50361, 11
12.1433, -6.45069, 2.17924, 7
11.9068, -7.91325, 3.72351, 4
11.8847, -8.27585, 4.25829, 11
12.0435, -6.14598, 3.49044, 100
11.9679, -7.96235, 4.33996, 3
11.8335, -10.158, 2.93497, 8
11.8254, -10.6924, 4.23973, 4
12.0921, -6.1405, 4.71486, 28
11.8469, -8.00905, 3.58579, 3
11.9363, -7.36723, 2.87548, 8
11.778, -12.4499, 2.53068, 17
11.8437, -12.4496, 4.92257, 9
11.8763, -9.14003, 2.91288, 87
12.1944, -12.0892, 2.1846, 13
11.9249, -12.4431, 3.39834, 38
11.9649, -12.4525, 2.16678, 9
11.8632, -10.0866, 3.25036, 6
11.733, -9.78775, 2.8806, 33
12.1138, -6.50191, 3.94201, 5
11.881, -10.0021, 2.38159, 100
11.9964, -6.26722, 2.82586, 24
11.8602, -9.30187, 2.04255, 9
12.194, -12.1005, 4.48118, 12
11.8395, -14.7724, 3.8995, 9
11.9968, -12.3594, 3.98446, 50
12.1835, -6.09632, 2.22639, 16
11.9722, -12.3526, 2.98362, 34
12.0286, -13.1474, 3.87139, 4
11.8369, -14.7705, 4.6965, 5
11.9653, -7.27758, 3.26466, 4
12.2268, -12.1607, 4.21324, 5
11.8671, -10.6987, 2.57367, 8
12.3236, -6.0348, 3.41476, 13
12.0509, -6.25002, 2.40784, 42
11.9321, -9.61049, 2.32032, 22
12.1576, -6.42585, 2.99256, 8
12.0668, -12.1012, 4.62585, 9
11.9195, -9.75447, 3.23124, 8
11.9202, -7.24374, 2.86952, 8
12.184, -12.2106, 3.88121, 12
11.9627, -7.90301, 3.10538, 8
12.2459, -6.40841, 2.26974, 8
11.9389, -7.2049, 3.4629, 7
12.2297, -12.2127, 4.43035, 12
11.9444, -12.4004, 2.76067, 38
12.1815, -12.1405, 3.00057, 11
11.9317, -12.3839, 2.32334, 36
12.2119, -12.1936, 2.83112, 28
11.8754, -10.9116, 4.20631, 8
12.1758, -5.99325, 4.67901, 12
11.9852, -6.17892, 2.24233, 20
12.1725, -12.2113, 2.21108, 19
11.7439, -6.17995, 3.94761, 33
11.8789, -12.4146, 2.14102, 37
11.8284, -13.8051, 2.83665, 9
11.9811, -8.92716, 3.4395, 7
12.1674, -12.1377, 2.40426, 12
11.9338, -8.24751, 3.37694, 11
11.9269, -9.67891, 2.97745, 54
12.1974, -5.99926, 2.35567, 17
11.9743, -12.4451, 4.11867, 27
12.2576, -12.0883, 2.58866, 27
12.1799, -6.36244, 3.21432, 9
11.8957, -11.0522, 2.722, 7
12.0382, -12.4518, 4.73119, 29
11.8841, -10.0694, 2.93659, 92
11.9414, -12.3627, 3.64308, 38
12.1334, -6.05004, 3.8264, 8
11.9634, -11.1929, 2.90215, 8
12.1859, -6.42279, 3.46154, 7
11.541, -12.4476, 4.29294, 16
12.0283, -12.53, 4.02323, 26
12.1539, -6.34047, 2.08079, 9
11.9175, -10.9333, 2.28173, 4
12.1747, -6.08518, 3.08633, 24
11.8957, -10.6521, 2.88461, 9
12.1773, -6.03931, 3.47542, 23
11.9743, -7.29886, 2.54345, 8
12.2074, -12.2276, 3.387, 28
12.0667, -8.79916, 3.99001, 3
12.1952, -6.04303, 2.55309, 20
11.9566, -12.4235, 4.57318, 12
11.9681, -5.09894, 3.28865, 7
11.8169, -9.929, 2.59411, 65
11.8575, -9.07231, 2.35835, 121
12.212, -6.3929, 2.7251, 8
11.7455, -11.0419, 4.06282, 3
12.0566, -6.19884, 4.77696, 38
11.6493, -12.3482, 4.44148, 24
12.031, -8.68672, 2.20227, 3
12.1842, -12.1282, 3.39019, 26
11.9319, -6.85464, 2.46742, 8
12.1902, -5.98574, 4.00904, 23
11.8373, -14.1727, 3.44821, 5
12.0015, -9.19241, 3.85881, 3
12.0366, -6.20247, 3.46875, 100
12.0095, -12.3588, 4.77694, 17
11.8973, -6.28006, 3.8411, 11
11.8662, -10.7376, 3.88794, 7
12.2615, -6.01853, 4.62891, 11
11.8518, -10.4858, 3.13004, 8
11.8195, -10.0686, 2.49028, 79
11.9807, -5.29378, 3.13329, 8
11.9062, -10.2673, 2.44955, 4
12.0195, -7.49394, 4.71875, 11
11.6389, -12.3418, 4.07987, 35
12.0206, -5.21746, 3.13225, 8
11.7251, -10.0441, 2.35276, 10
11.8994, -10.0393, 2.73241, 100
12.0056, -7.59095, 2.07485, 7
12.1786, -12.1381, 4.24478, 27
11.9716, -6.96731, 3.23872, 4
12.0448, -6.46098, 2.72397, 8
12.0515, -6.21441, 4.32887, 33
12.1082, -6.48113, 3.74885, 8
11.9002, -11.6971, 4.61897, 3
12.0163, -6.26982, 4.44519, 33
12.058, -6.26245, 2.86627, 100
12.1483, -6.04456, 2.97193, 9
12.1844, -6.01712, 4.11616, 11
12.0547, -6.23978, 3.3242, 33
12.1502, -12.1649, 3.65094, 35
11.7432, -10.1087, 2.69846, 71
12.1931, -12.1662, 2.33131, 18
11.6419, -12.4555, 4.22891, 4
12.0413, -12.6028, 3.733, 13
11.8254, -12.438, 3.11855, 12
11.8213, -12.7484, 3.19721, 8
11.8357, -11.7418, 2.02226, 5
11.9463, -6.86234, 2.73815, 4
12.2341, -12.1358, 3.4844, 26
-9.76832, -39.8454, 2.30829, 17
0.199948, -17.9776, 4.2402, 6
0.744709, -21.4169, 3.77402, 34
4.26095, -20.4185, 2.11068, 32
4.73071, -21.6574, 4.19054, 9
0.507734, -17.9999, 3.48619, 3
0.794272, -21.421, 4.18691, 8
-3.31182, -17.9375, 4.23544, 5
-0.264692, -18.0376, 3.87199, 6
0.716675, -21.4068, 2.04536, 24
3.20002, -18.1531, 4.55843, 7
2.3739, -18.1876, 4.7744, 7
4.30169, -20.5906, 2.35496, 6
3.76861, -24.1547, 2.02869, 7
0.635314, -22.7518, 3.92724, 14
-1.68443, -17.7886, 2.89061, 5
-2.59542, -17.7908, 3.56855, 12
3.1085, -18.3195, 4.83547, 5
1.44987, -18.3091, 3.95182, 3
0.613266, -21.9807, 4.32764, 19
-3.03233, -18.0379, 4.89394, 3
-3.21502, -18.0611, 4.60731, 3
2.29058, -21.2737, 3.85247, 4
0.759186, -21.6382, 3.43333, 19
0.782956, -22.5961, 3.16889, 19
4.51808, -20.3679, 2.54693, 24
4.24525, -20.5013, 2.38021, 25
4.22496, -21.9284, 3.39825, 24
3.44687, -24.157, 2.35802, 7
0.616269, -22.702, 2.91986, 16
2.58908, -23.0254, 2.50065, 6
-0.825884, -17.8615, 4.33469, 2
-2.93028, -17.776, 4.91947, 4
-1.66977, -18.016, 4.38459, 3
-0.14445, -18.1394, 4.31366, 3
-1.8884, -17.9237, 4.07248, 4
-3.20709, -17.8391, 4.30864, 2
-1.27079, -18.033, 3.49289, 3
0.772863, -21.3758, 2.26359, 31
-1.0479, -17.9622, 3.44686, 6
-0.202697, -18.1432, 2.31247, 17
-0.895931, -17.9789, 4.71996, 5
-1.37767, -17.962, 4.90784, 2
-1.50801, -17.9862, 2.76998, 3
4.72156, -20.3652, 2.46285, 19
3.59498, -21.5602, 3.91261, 22
-0.0365593, -18.0498, 4.691, 5
2.30243, -19.0567, 2.63508, 4
0.879722, -18.0833, 2.74579, 3
0.74862, -21.4679, 4.33066, 46
0.738454, -21.4465, 3.34673, 34
-1.33609, -18.0777, 3.11377, 6
4.78325, -20.3522, 2.11984, 22
3.62047, -24.081, 2.27597, 23
0.634185, -18.1057, 4.70628, 3
0.722715, -21.4724, 3.44763, 25
-0.899905, -18.1155, 4.58989, 3
-3.08113, -18.0367, 4.38057, 3
3.26861, -18.2711, 4.94175, 2
1.068, -18.1534, 4.74041, 3
0.79784, -21.5051, 4.42826, 38
-0.642017, -18.0979, 4.23382, 3
-3.45326, -17.8927, 4.23647, 5
0.900698, -17.9961, 4.33567, 6
-0.138038, -18.1099, 3.35082, 5
-0.895632, -18.0482, 3.12197, 6
-4.04871, -17.8794, 3.02341, 5
2.26102, -18.1019, 4.39636, 3
0.671107, -21.5165, 3.95511, 18
1.61529, -21.7269, 2.20968, 48
2.3301, -18.1536, 3.13797, 7
0.309575, -17.994, 3.62805, 6
0.784258, -21.3497, 2.12271, 32
-0.0191064, -17.9946, 3.96034, 3
-0.185981, -18.1045, 2.75324, 11
-1.20484, -18.008, 4.90241, 2
-2.94636, -17.818, 2.26764, 3
2.2657, -18.0532, 3.03178, 4
-3.4505, -17.9053, 3.3374, 3
-3.40409, -17.9375, 4.71699, 5
2.70664, -17.9416, 4.58149, 5
4.7305, -18.2155, 3.99162, 7
0.44546, -18.134, 4.72732, 2
2.54609, -18.1924, 4.25875, 4
-0.0909777, -18.1044, 2.63738, 6
-2.71096, -18.0343, 4.87036, 3
-0.573434, -18.2567, 4.21647, 12
2.71055, -22.9144, 2.71866, 5
3.8291, -23.987, 2.13403, 70
0.557143, -17.9896, 4.5959, 5
2.70828, -18.1564, 4.0139, 3
-3.17505, -18.136, 2.39814, 6
2.65675, -18.1003, 2.00302, 9
-1.1461, -18.0644, 2.76275, 6
4.92585, -18.1417, 2.52111, 4
-3.10205, -17.977, 2.40422, 4
-0.829629, -17.9663, 2.58979, 3
-0.199532, -18.1542, 4.72115, 6
-3.12203, -18.0235, 3.12956, 9
3.4843, -18.265, 4.79327, 7
3.43363, -19.1984, 2.2765, 24
0.620746, -22.7179, 3.42443, 16
1.51585, -21.9026, 2.47284, 18
-0.268539, -18.3141, 4.61285, 10
3.2935, -18.1089, 4.6769, 3
-0.522767, -18.1639, 4.63962, 13
2.70889, -22.9992, 2.09832, 6
0.747096, -22.8415, 2.69077, 10
-3.05847, -17.9018, 2.74703, 2
3.02163, -18.0947, 2.43562, 4
-1.4924, -17.8285, 3.31155, 137
-1.36075, -17.9991, 2.37209, 9
4.32841, -20.0982, 2.67204, 9
1.33835, -18.0076, 2.8329, 3
-4.83532, -18.0483, 3.05468, 9
-2.6089, -18.0654, 4.56046, 3
3.36834, -17.9635, 4.1462, 2
-0.565438, -18.232, 3.86893, 19
3.63148, -19.0109, 2.66528, 40
1.58143, -21.8585, 2.5832, 76
3.5616, -24.0251, 2.09082, 41
-1.72261, -18.0715, 2.19848, 9
-3.52521, -17.9016, 3.13742, 5
2.47192, -18.1412, 2.75347, 7
1.54231, -21.8846, 3.14831, 84
2.82708, -18.16, 4.83973, 4
2.1247, -18.1553, 2.34939, 2
-0.146613, -18.1404, 2.93921, 7
-2.23858, -17.9253, 4.15774, 3
-0.111443, -18.255, 3.47991, 10
2.53888, -21.5259, 4.25409, 15
-4.41619, -18.2165, 2.00547, 5
-4.00638, -17.9335, 4.88283, 5
0.784638, -22.6872, 3.65857, 15
0.66891, -21.5139, 3.48927, 30
0.775768, -22.4122, 2.19747, 17
2.62837, -21.9588, 2.89372, 75
4.79221, -21.9921, 3.42695, 39
3.65242, -21.5319, 4.2339, 6
-3.64884, -17.8791, 2.12785, 3
3.31787, -21.9233, 3.55301, 35
1.24809, -21.5159, 4.26724, 15
-2.31959, -17.815, 3.68693, 143
-0.195122, -18.0401, 2.956, 13
1.38553, -17.9648, 2.23333, 6
-4.60418, -18.0602, 2.33123, 3
3.9788, -19.0677, 2.14217, 20
-0.466548, -18.2537, 4.91054, 13
-4.58484, -18.0073, 4.16282, 3
1.87031, -18.9478, 2.30169, 38
-4.08846, -18.001, 2.2487, 9
2.38034, -19.1412, 2.30783, 34
1.97373, -18.1613, 3.88534, 5
-0.112646, -18.1463, 4.62213, 6
0.759506, -21.4561, 3.01427, 37
2.18351, -22.0378, 3.26212, 63
2.68955, -22.8607, 2.01013, 17
4.70398, -20.1554, 2.36975, 33
2.9955, -21.5181, 4.38371, 11
-0.0957074, -18.1437, 3.69056, 19
-2.24214, -17.9096, 4.44848, 2
-0.142421, -18.1756, 3.93259, 22
3.71387, -24.4963, 2.12992, 26
0.928797, -21.5403, 2.83917, 6
3.58801, -21.9045, 3.30376, 39
0.620297, -21.8512, 4.78747, 15
-2.43997, -17.9333, 4.4973, 4
3.76052, -18.9874, 2.61341, 23
-0.259909, -18.2042, 4.03801, 14
-0.182121, -18.2002, 2.67892, 15
-2.41655, -17.9926, 3.33893, 36
-0.357399, -18.0886, 3.48502, 77
1.36714, -17.986, 2.61574, 4
-4.36599, -18.0205, 2.86033, 9
0.774569, -21.5343, 4.18031, 11
3.01178, -21.9137, 3.53848, 64
0.783914, -21.4393, 3.35611, 22
-4.16261, -17.9554, 2.67701, 9
3.83434, -18.1177, 2.77547, 8
-0.122356, -18.2984, 2.26129, 12
-1.98686, -17.9774, 3.0616, 9
-4.30548, -17.9665, 3.14221, 4
-4.84663, -17.9704, 3.43238, 6
-2.13817, -17.9124, 4.83672, 5
-0.121193, -18.1812, 4.23089, 6
-0.679104, -17.9808, 2.60098, 3
3.75813, -21.9108, 3.35524, 30
-4.16159, -17.9171, 2.50456, 9
2.1833, -23.4898, 2.08052, 21
-1.54527, -17.8681, 3.25094, 161
-4.80081, -17.919, 4.58755, 5
1.29479, -18.0381, 4.29509, 6
3.49273, -19.0706, 2.21968, 35
2.17426, -22.8999, 2.11924, 8
1.70334, -21.9189, 3.62909, 9
1.28131, -21.517, 2.0618, 15
-0.139037, -18.2602, 2.57208, 13
-0.14796, -18.1786, 3.21584, 13
-1.99045, -17.9603, 2.78569, 2
-0.122629, -18.2497, 2.20435, 13
-0.0997179, -18.3063, 4.38092, 13
-4.87681, -17.9398, 2.48387, 4
-3.40331, -17.934, 3.7244, 3
1.66302, -21.8478, 2.55864, 86
1.57176, -21.8594, 3.273, 100
1.49718, -21.8397, 3.64105, 11
-2.52512, -17.8434, 3.77376, 60
-0.226825, -18.1075, 3.39728, 18
0.806474, -21.4489, 2.79661, 34
-1.39952, -18.0303, 3.52932, 142
0.837277, -21.3934, 3.99909, 54
1.6529, -21.8683, 2.93912, 64
0.921592, -21.4716, 3.72723, 50
-2.21619, -17.9105, 2.45631, 3
0.782629, -23.7008, 4.20899, 10
-0.0238959, -18.2959, 3.00883, 10
-4.01687, -17.7697, 3.97261, 3
-1.74625, -17.881, 3.30551, 138
-3.70153, -17.9211, 3.76473, 4
4.49294, -18.1518, 3.10077, 8
-0.538774, -18.2011, 2.9278, 19
-2.57352, -17.9186, 3.53577, 24
3.96766, -24.0841, 2.73935, 10
1.65918, -21.8779, 2.08817, 58
3.43729, -21.5759, 4.19976, 6
-4.20471, -18.0645, 4.90928, 5
-2.64418, -17.9162, 3.3762, 100
-0.583359, -18.1612, 2.73321, 13
-0.291154, -17.8513, 4.66677, 24
2.09692, -19.128, 2.56028, 48
-0.54551, -18.2348, 2.17206, 14
-0.634544, -18.1256, 2.20833, 9
0.674062, -21.4176, 4.14284, 30
2.10526, -19.0716, 2.35943, 52
-0.338142, -18.0125, 4.62388, 14
-0.381264, -18.168, 4.32416, 13
-2.30921, -18.003, 4.89595, 3
0.66652, -21.4217, 2.9832, 44
1.17044, -21.4566, 4.45052, 9
4.4407, -19.9946, 2.47527, 41
-0.569522, -18.1265, 3.17174, 12
-0.0965238, -18.2181, 4.90716, 13
-0.630794, -18.2722, 2.32091, 39
-2.57108, -18.0592, 3.12779, 8
1.94197, -18.9556, 2.09062, 46
-2.38273, -18.2144, 3.15145, 8
1.41235, -18.1081, 3.47981, 2
4.43235, -20.3225, 2.00742, 30
3.52345, -18.1389, 3.27972, 7
-0.415441, -18.2102, 3.09386, 28
-2.44595, -17.9369, 3.55117, 60
-4.44852, -18.0177, 3.18454, 7
2.4228, -19.1044, 3.00218, 15
-1.81572, -18.0622, 4.81379, 3
0.813277, -21.4252, 3.46215, 45
0.779906, -21.4474, 2.85542, 49
0.7842, -21.4518, 2.28673, 70
1.94481, -24.5454, 2.40683, 41
3.30164, -24.5228, 2.31773, 20
3.32815, -24.1275, 2.29101, 30
1.41165, -18.1153, 4.91853, 3
-1.47053, -17.9474, 3.78445, 5
-2.30187, -18.047, 2.31045, 9
-4.01878, -18.0668, 4.3101, 3
2.0201, -18.0452, 3.94289, 7
2.32216, -18.8742, 2.33007, 29
-0.135685, -17.8188, 4.59102, 48
4.79024, -21.8809, 3.66979, 63
-1.53385, -17.8181, 3.88797, 4
3.35243, -18.2515, 2.83412, 7
-4.77006, -18, 3.45244, 6
1.15246, -18.059, 3.30446, 4
-4.47655, -18.0456, 4.93809, 2
3.79355, -19.0742, 2.33928, 46
1.94085, -18.9149, 2.8963, 34
0.812653, -22.3215, 4.07443, 10
2.46571, -21.5486, 3.80678, 11
4.58175, -21.9434, 3.29665, 9
0.748097, -21.4382, 2.78145, 35
0.22759, -18.0707, 4.63138, 3
2.41425, -18.0808, 4.70496, 6
1.72374, -21.8388, 3.29456, 91
-3.88582, -18.0118, 3.74231, 4
1.98417, -18.1465, 3.22911, 2
-1.74337, -18.006, 3.06546, 9
-3.41418, -18.0368, 3.11996, 9
2.79539, -18.0904, 2.77001, 4
4.84388, -18.368, 2.03665, 7
0.694548, -21.4822, 2.51031, 24
-0.225445, -17.8369, 4.50869, 39
1.86593, -18.0588, 3.88484, 5
1.95913, -18.8685, 2.30468, 40
3.88132, -18.8793, 2.22502, 48
-0.185165, -18.1533, 3.42418, 19
-2.50376, -17.8621, 4.00473, 19
1.96624, -19.0645, 2.0043, 18
-0.289825, -18.1125, 4.27001, 46
1.66357, -21.8368, 2.26276, 60
-2.5761, -18.0478, 3.96437, 10
-0.513974, -18.2052, 3.31437, 27
3.45244, -19.042, 2.21307, 54
1.51195, -17.9845, 3.251, 3
-4.64703, -18.0411, 3.68187, 6
2.33305, -18.8353, 2.14333, 36
0.801777, -21.4542, 3.8343, 25
3.19823, -23.9532, 2.1241, 58
1.17241, -18.0898, 4.74349, 3
3.63096, -19.0587, 2.62393, 31
2.32378, -24.7003, 2.19069, 37
2.00122, -18.7631, 2.55333, 7
4.07021, -19.0747, 2.13122, 20
-3.97325, -17.7678, 4.2721, 2
2.29017, -18.6598, 2.26374, 25
3.04893, -18.1252, 3.32443, 6
-1.57075, -17.9195, 4.2779, 33
4.94676, -18.2848, 4.1139, 7
2.72405, -18.121, 4.82941, 4
3.39713, -19.7101, 2.12256, 7
4.36966, -20.1742, 2.69292, 18
1.55252, -21.9066, 2.07208, 77
3.97697, -19.4128, 2.08006, 7
-0.470848, -18.0992, 4.65806, 11
2.69521, -22.7861, 2.32472, 8
0.581116, -22.644, 3.01438, 39
0.666909, -23.245, 2.86599, 10
2.25168, -18.108, 2.43974, 4
-1.46602, -18.0265, 3.11982, 132
4.54561, -18.0662, 2.75022, 3
-0.336241, -18.0833, 2.06721, 21
3.00211, -18.0001, 3.00374, 3
-2.9042, -17.9603, 3.16826, 9
0.741266, -21.4507, 2.64194, 32
-1.77162, -17.8903, 3.90804, 4
-3.75121, -18.0163, 3.353, 8
0.768663, -22.482, 3.96745, 7
-3.62344, -18.0263, 3.64234, 13
4.4239, -18.2234, 2.69596, 8
2.25762, -18.1292, 3.16674, 8
-1.71993, -17.9985, 2.56977, 4
-0.260106, -18.1646, 2.52172, 13
-2.46281, -17.8897, 3.11649, 13
0.715968, -21.5499, 3.02586, 9
1.92824, -21.5168, 4.19435, 5
1.88742, -18.036, 3.1994, 3
-4.08867, -17.952, 3.61717, 4
-3.52975, -17.9618, 4.4742, 7
3.79507, -21.7809, 2.54249, 8
1.24316, -17.926, 4.63711, 4
3.6641, -19.0959, 2.38244, 45
-4.87328, -17.9817, 4.83254, 5
3.60243, -19.0205, 2.30336, 16
-0.52902, -18.2019, 3.48491, 23
-2.62153, -17.886, 4.16215, 7
-1.48777, -17.8126, 3.63566, 129
2.46529, -18.4271, 2.12903, 30
0.209877, -18.0451, 2.63033, 7
3.77251, -18.9823, 2.38156, 44
-0.44652, -18.2085, 3.66124, 29
-2.4688, -17.926, 4.19345, 8
0.729334, -21.4531, 2.11823, 32
-0.783953, -18.0946, 3.85108, 6
-3.08765, -18.0377, 4.32093, 3
-1.48834, -18.0198, 4.47542, 3
-4.07443, -17.8704, 3.96553, 3
2.00818, -19.025, 2.21292, 42
-0.163834, -17.8318, 4.19483, 12
2.18151, -21.8326, 2.92213, 3
2.67582, -18.1602, 3.33892, 9
0.671039, -18.0706, 3.87354, 6
-1.46149, -17.8142, 4.54229, 134
3.04644, -21.5323, 4.09077, 35
0.830011, -21.4096, 4.85258, 32
3.22398, -23.9983, 2.63646, 41
2.46014, -19.0167, 2.56612, 17
20.2247, 22.8527, 3.5223, 21
20.199, 21.7442, 4.94495, 12
22.6061, 17.2453, 2.0718, 17
22.2789, 23.6008, 2.50879, 21
20.8584, 23.3841, 4.31782, 12
22.7987, 22.2676, 4.35579, 25
21.1787, 20.0027, 4.35954, 12
22.0409, 20.3357, 4.36757, 12
23.6511, 23.4347, 3.1305, 33
22.3808, 21.3424, 4.66228, 15
23.6373, 19.5832, 2.01968, 63
19.6306, 23.3034, 3.54722, 11
23.4443, 23.4796, 4.0739, 11
23.5445, 23.3682, 2.29438, 23
22.4762, 18.1616, 3.9747, 16
23.6309, 22.5774, 4.90745, 63
23.1273, 21.7181, 2.05284, 12
24.5512, 21.1655, 2.02983, 12
22.3163, 22.6121, 3.88555, 12
21.8636, 21.0056, 3.91456, 12
21.8271, 20.7436, 3.92013, 11
23.9491, 21.1332, 3.98173, 24
21.4518, 21.8558, 4.06355, 11
22.0937, 21.1402, 4.01252, 11
22.9311, 20.8684, 3.97268, 12
23.0839, 20.1911, 2.10249, 12
24.486, 21.4871, 4.61736, 12
23.6674, 19.8023, 4.54888, 11
21.6351, 22.3228, 4.19279, 16
22.4944, 21.6947, 4.14933, 16
21.6527, 23.5276, 2.53171, 20
19.3183, 24.6689, 4.58378, 11
20.6057, 22.9392, 3.45396, 19
23.2646, 24.7043, 3.16667, 16
20.9462, 19.9972, 4.75488, 45
23.0571, 20.5005, 2.43155, 11
23.5977, 20.4227, 3.86137, 15
23.2656, 20.3531, 3.16977, 11
20.0633, 22.7517, 3.89664, 15
20.4438, 23.5709, 3.00463, 19
23.101, 22.9372, 3.21974, 19
23.0726, 21.619, 4.63277, 11
22.1504, 19.5889, 4.64927, 11
23.904, 20.2618, 3.46982, 18
20.863, 23.3597, 4.5413, 15
21.6848, 21.9387, 4.91595, 11
21.7681, 21.0058, 3.28472, 11
24.6193, 20.9834, 3.30501, 23
20.7461, 23.0595, 2.59401, 14
23.6494, 24.1951, 2.44274, 16
23.4721, 23.2171, 3.7784, 57
21.9907, 21.2104, 4.0982, 15
23.8502, 21.0713, 3.67723, 51
22.7299, 17.2144, 4.4892, 26
20.4944, 24.7293, 3.58373, 11
20.3807, 22.6787, 3.24712, 11
20.0099, 23.6474, 4.82132, 14
21.7541, 20.7935, 3.28802, 11
21.4917, 21.7448, 4.84267, 14
22.8191, 21.5758, 3.65123, 11
19.2874, 23.165, 4.43244, 11
19.6391, 21.8748, 4.4006, 11
21.8401, 21.3468, 2.02072, 14
22.5786, 19.5858, 4.39661, 11
23.8339, 21.566, 3.04149, 35
21.6075, 22.0295, 3.63466, 11
20.5512, 23.8235, 3.29931, 12
24.566, 23.922, 3.65926, 11
22.6776, 20.2062, 2.1242, 15
22.5317, 21.1003, 3.6155, 11
23.1778, 20.0045, 4.78137, 13
22.0167, 21.4095, 3.87336, 11
20.2664, 23.842, 3.67247, 11
24.6506, 21.5212, 3.03436, 14
22.7096, 16.2771, 2.10044, 13
21.6281, 21.0461, 3.49021, 12
21.8133, 21.0836, 3.49481, 12
22.5257, 21.3205, 2.35929, 15
22.1234, 20.9817, 4.63918, 15
22.7528, 21.4478, 3.51407, 13
23.3964, 20.7755, 3.54657, 13
22.8113, 20.0064, 3.59582, 11
19.471, 23.7275, 4.89289, 11
19.7221, 23.9592, 3.78565, 15
21.2765, 20.2214, 4.8036, 10
24.0852, 20.246, 3.16882, 23
23.7202, 20.9551, 4.92608, 11
23.4657, 20.488, 3.77347, 15
24.4922, 20.1313, 4.91978, 11
20.8255, 23.8088, 2.87501, 15
20.502, 24.7015, 4.50445, 13
22.6694, 23.6967, 3.12354, 16
23.3309, 20.6975, 4.0252, 12
24.2203, 20.169, 3.93097, 12
19.4713, 23.2885, 2.32618, 12
19.8051, 23.3772, 2.32238, 12
23.1225, 22.6213, 3.22962, 18
21.3503, 21.8431, 2.33575, 12
21.2446, 21.7481, 3.43058, 29
23.0292, 21.2462, 3.46613, 33
21.7792, 20.6935, 2.67167, 11
23.6216, 21.2069, 3.48052, 34
20.3205, 22.1677, 4.85389, 10
22.4149, 20.451, 3.85563, 11
22.6834, 19.5346, 2.37689, 12
23.1922, 19.2752, 2.38338, 12
22.5308, 18.1581, 3.44426, 24
19.6611, 24.2398, 3.1607, 12
20.0721, 24.0197, 4.33789, 18
20.446, 24.1355, 4.37209, 19
24.5369, 22.4168, 3.50911, 40
20.6047, 22.3322, 3.38439, 12
22.9989, 20.945, 4.45284, 15
21.3635, 20.3748, 3.61207, 11
21.2413, 22.1452, 4.26105, 12
23.424, 21.9899, 3.67077, 12
24.4297, 21.5176, 3.86727, 12
22.6387, 19.5701, 3.80585, 12
24.2074, 24.5199, 2.16616, 17
22.9837, 20.6825, 3.16901, 18
23.9988, 21.4075, 4.54642, 13
24.5928, 21.6616, 3.40196, 22
24.2559, 20.4206, 4.7037, 15
23.1386, 20.0016, 4.49839, 12
24.3166, 20.1855, 4.53091, 12
20.7824, 23.4986, 3.33038, 15
22.113, 21.6684, 2.70162, 11
20.0793, 21.8682, 3.30918, 14
21.3598, 22.0181, 4.3487, 10
22.6293, 22.7136, 4.36753, 11
24.1906, 24.4329, 2.00886, 14
22.1913, 21.0186, 3.30362, 18
24.0173, 21.6756, 4.2883, 11
23.1667, 20.4256, 3.14093, 15
23.6933, 20.6147, 4.23459, 22
19.8218, 23.3485, 4.15397, 53
23.0756, 20.5345, 3.69947, 11
23.3972, 20.2149, 4.73475, 14
22.6422, 16.2035, 2.34337, 12
24.5371, 19.9798, 4.50491, 12
20.1569, 23.3285, 3.00032, 14
19.9859, 22.0313, 2.97705, 14
19.2334, 23.1594, 2.3296, 12
22.6844, 22.4471, 4.66321, 29
20.9058, 22.0117, 4.00297, 10
20.9563, 23.07, 3.40378, 11
22.6948, 23.7459, 4.06937, 11
22.3914, 22.2719, 3.90735, 12
22.0517, 22.6834, 2.13657, 12
23.5146, 19.535, 3.87953, 10
22.5119, 17.6583, 3.8059, 42
22.483, 17.5884, 2.81207, 40
19.7885, 24.7258, 4.06727, 12
19.1436, 23.5759, 2.32615, 12
23.5211, 21.7694, 4.63114, 26
19.8124, 22.9559, 4.52788, 12
20.4343, 21.4867, 4.33291, 12
22.4533, 21.4066, 3.73752, 49
24.1931, 21.9074, 4.63263, 11
19.6386, 23.0584, 4.55533, 12
21.1448, 23.3759, 3.27407, 12
23.0511, 21.5186, 2.4023, 18
21.121, 22.0334, 3.13649, 12
21.5431, 22.4062, 4.46401, 11
21.8881, 21.5713, 3.09554, 12
24.5108, 21.2768, 4.88341, 12
20.7868, 20.1384, 4.83244, 23
23.9043, 21.6312, 3.03142, 33
21.9342, 21.6603, 2.69326, 28
22.8739, 20.2772, 2.85009, 10
24.5557, 20.4163, 4.02571, 12
24.1094, 24.3821, 3.58869, 39
23.6081, 19.5158, 4.93943, 27
22.6752, 16.3239, 2.37989, 10
23.6586, 20.7102, 4.5134, 12
19.1771, 24.0099, 4.25168, 27
23.2012, 19.2493, 4.21297, 11
20.8083, 22.4622, 2.71505, 16
20.3696, 23.4677, 4.23753, 55
20.9365, 23.4634, 2.13366, 17
23.9675, 20.6467, 3.59748, 12
22.5654, 18.0677, 4.48726, 46
21.029, 21.8242, 3.4268, 29
20.731, 22.8959, 4.93872, 9
23.8153, 24.2226, 2.05058, 45
20.3565, 23.2038, 2.42215, 28
22.0007, 22.1418, 4.15597, 12
22.6371, 17.5871, 4.44137, 23
20.8111, 22.6319, 4.86297, 12
21.6208, 21.465, 3.57444, 26
20.7409, 21.6634, 3.41954, 28
22.4211, 18.2091, 4.16728, 23
23.9974, 19.948, 4.62361, 15
22.427, 18.1833, 2.1718, 17
20.8121, 23.1823, 2.41072, 29
22.8451, 17.0229, 2.77811, 23
22.5117, 18.0231, 4.19099, 45
23.882, 24.6539, 3.51241, 41
23.4563, 23.1385, 2.04493, 16
20.1647, 21.7608, 2.67947, 11
22.8281, 20.198, 2.91228, 26
23.4724, 19.9469, 4.6115, 12
22.3361, 18.2185, 2.6514, 23
20.778, 21.9743, 3.00353, 10
21.3036, 23.5596, 3.16277, 31
22.872, 23.964, 2.22773, 17
21.1339, 21.9511, 4.50273, 17
21.5419, 23.2598, 3.9103, 11
19.4504, 23.8171, 4.43244, 18
23.2001, 22.7193, 3.07816, 34
20.949, 22.7836, 2.65467, 12
19.9459, 22.467, 4.4855, 11
20.0796, 21.9791, 4.0378, 11
21.8636, 22.3718, 4.93458, 9
21.1132, 23.6202, 4.82542, 17
23.2873, 22.6106, 2.66065, 34
21.1504, 22.7133, 3.20573, 12
21.2823, 20.3092, 4.94638, 27
23.1863, 22.4078, 3.04028, 33
23.1446, 19.9481, 4.91243, 12
24.3098, 20.0865, 2.78224, 30
22.4842, 21.7892, 4.47427, 9
19.5595, 23.0859, 4.8713, 12
23.1723, 23.0364, 2.89701, 15
21.05, 23.3732, 3.57039, 25
20.572, 22.9823, 4.90765, 12
22.5276, 18.1515, 4.57545, 56
22.4828, 17.3625, 3.54975, 22
20.7089, 22.1051, 3.86502, 10
20.0633, 23.2262, 4.14622, 15
24.4477, 22.5154, 3.08833, 11
20.0202, 22.771, 3.33842, 14
22.2395, 22.6487, 2.68826, 32
21.339, 23.7489, 2.81233, 32
20.7599, 22.7913, 2.70086, 28
21.1805, 22.4222, 4.23171, 17
23.5027, 22.8084, 2.0849, 24
23.2245, 23.5736, 3.48821, 40
21.2149, 23.1319, 2.74267, 30
