X,Y,Z,I,
13.6261, -16.9089, 4.23306, 0
13.808, -17.9444, 2.47279, 0
5.61071, -17.6582, 3.42057, 0
13.4295, -17.119, 3.88211, 0
13.579, -16.7151, 4.94008, 0
13.6573, -17.5504, 3.2882, 0
5.72846, -17.5195, 4.13536, 0
6.76432, -17.3666, 1.31959, 0
13.8518, -17.6253, 4.74661, 0
11.8741, -18.2294, 3.99372, 0
12.9805, -17.7262, 1.21146, 0
6.9172, -17.3327, 2.65551, 0
12.9817, -17.3493, 2.46881, 0
13.9463, -17.5766, 2.88537, 0
13.6479, -16.9261, 4.53567, 0
6.63678, -17.1611, 3.47848, 0
12.8022, -18.0361, 1.52042, 0
6.58966, -17.1701, 3.41107, 0
13.3368, -17.2589, 4.54871, 0
7.24668, -17.4872, 4.8475, 0
6.39836, -17.3879, 3.68076, 0
6.23414, -17.3894, 3.43413, 0
12.3236, -17.7595, 2.00414, 0
14.0532, -17.2222, 2.99551, 0
12.6251, -17.9249, 1.19167, 0
6.44056, -17.3327, 3.08233, 0
12.7971, -15.3163, 3.05384, 0
13.0722, -17.8652, 4.23046, 0
6.56255, -17.7291, 3.03573, 0
12.538, -17.7403, 2.67825, 0
13.9703, -17.2749, 1.69888, 0
12.3268, -18.043, 2.25416, 0
6.42638, -17.3412, 2.82469, 0
13.6588, -16.9335, 3.83245, 0
13.1842, -17.6737, 4.32513, 0
6.53455, -17.3425, 3.00185, 0
12.6416, -17.3961, 2.75912, 0
13.3137, -17.584, 3.35697, 0
13.2491, -17.6232, 2.38159, 0
7.73907, -17.3151, 3.00718, 0
13.6837, -17.3555, 2.77502, 0
13.9801, -17.0817, 1.11771, 0
6.49542, -17.2946, 2.70798, 0
13.7126, -17.1041, 1.89077, 0
6.62368, -17.3142, 2.03472, 0
12.5095, -17.4579, 1.92224, 0
13.3668, -17.2689, 2.17389, 0
7.38076, -17.288, 2.39713, 0
5.81661, -17.2273, 1.05179, 0
10.8922, -17.8399, 3.72926, 0
12.9595, -17.9846, 3.118, 0
5.67266, -17.43, 1.73301, 0
5.64855, -17.3669, 1.43442, 0
5.96895, -17.2489, 1.4596, 0
13.6949, -16.9422, 1.09046, 0
13.3921, -17.2973, 1.56458, 0
7.41576, -17.2549, 1.93141, 0
13.3951, -17.3011, 1.21635, 0
13.3884, -17.2925, 1.91335, 0
7.40072, -17.2885, 2.19946, 0
7.51504, -17.6911, 1.28663, 0
13.6865, -17.0822, 2.94247, 0
13.0138, -17.8672, 3.95826, 0
13.9569, -17.245, 3.23674, 0
6.42455, -17.6788, 2.7652, 0
12.4347, -17.7754, 2.41603, 0
13.4109, -17.5515, 2.25427, 0
13.4271, -17.552, 1.7736, 0
7.24868, -17.1992, 2.82776, 0
13.1749, -17.0593, 2.38758, 0
13.5329, -17.5643, 2.18715, 0
13.442, -17.6262, 1.24892, 0
13.2753, -17.026, 1.88882, 0
13.6566, -17.4312, 1.82652, 0
12.624, -15.2613, 3.42277, 0
12.476, -17.4495, 2.2227, 0
6.49176, -17.2603, 2.46498, 0
13.2634, -17.7098, 4.91701, 0
6.66517, -17.3918, 3.66875, 0
12.7053, -17.3662, 3.32104, 0
11.617, -18.377, 2.60916, 0
13.4583, -17.6912, 3.55134, 0
12.9007, -17.6146, 1.49196, 0
13.0024, -17.6206, 2.18448, 0
14.1355, -16.9237, 4.93714, 0
6.19559, -17.412, 4.0925, 0
14.3589, -17.6473, 3.59937, 0
6.21847, -17.4014, 4.36867, 0
12.4832, -18.242, 2.95863, 0
6.26422, -17.376, 4.78106, 0
5.73879, -17.3537, 1.10715, 0
12.9704, -14.8637, 4.77623, 0
13.4591, -16.9376, 1.4434, 0
12.9181, -14.9075, 4.51452, 0
13.7598, -17.4117, 1.05702, 0
13.7047, -17.4213, 1.5988, 0
12.9781, -17.4215, 3.86468, 0
6.7564, -17.506, 4.28833, 0
13.7893, -17.4934, 2.04789, 0
5.30935, -17.4029, 1.01201, 0
14.0017, -16.8818, 1.5323, 0
6.25987, -17.3084, 1.61076, 0
12.2474, -17.5327, 1.12015, 0
14.0988, -17.2092, 1.51127, 0
12.277, -17.8008, 1.72789, 0
13.9517, -17.2128, 2.80586, 0
13.406, -16.9268, 1.17069, 0
14.0409, -17.2062, 2.25206, 0
12.2403, -17.8465, 1.44795, 0
13.7822, -16.894, 1.36391, 0
13.7217, -17.112, 1.54139, 0
6.39874, -17.2956, 2.51247, 0
13.677, -16.947, 2.7839, 0
12.6321, -15.2922, 3.10748, 0
13.1406, -17.0086, 1.04695, 0
7.20911, -17.2018, 1.05437, 0
7.4069, -17.2026, 1.61326, 0
13.6061, -17.095, 1.21458, 0
7.60766, -17.2026, 1.97737, 0
13.5991, -17.0863, 1.91054, 0
7.52262, -17.2316, 1.14302, 0
7.62, -17.1845, 1.65679, 0
13.6026, -17.0907, 1.56225, 0
7.48501, -17.218, 2.50117, 0
13.5954, -17.0533, 2.1484, 0
13.6859, -17.0764, 2.36738, 0
13.6952, -17.0895, 2.59115, 0
6.7727, -17.24, 1.37903, 0
12.7758, -17.1189, 1.26496, 0
12.8736, -17.1039, 1.5426, 0
13.3355, -17.0151, 2.17387, 0
6.67072, -17.1631, 1.2762, 0
6.48386, -17.4656, 1.06991, 0
12.7014, -17.2562, 1.41577, 0
6.49903, -17.2505, 1.94269, 0
6.60017, -17.4391, 1.45214, 0
12.6579, -17.4532, 1.32644, 0
13.3797, -17.2868, 3.29026, 0
7.44639, -17.2567, 3.46798, 0
7.13222, -17.4199, 3.30196, 0
13.2105, -17.452, 2.92276, 0
7.23629, -17.2017, 1.44917, 0
13.2303, -16.9981, 1.32602, 0
13.7306, -17.0484, 3.22035, 0
5.86732, -17.7926, 2.83678, 0
7.43633, -17.2447, 3.11024, 0
13.5918, -17.077, 2.60958, 0
7.4359, -17.2434, 3.41736, 0
13.5895, -17.0742, 2.96104, 0
12.0274, -15.596, 3.0872, 0
7.24813, -17.2376, 1.7377, 0
13.3295, -16.9906, 1.60664, 0
7.43787, -17.2485, 2.8051, 0
13.5955, -17.0818, 2.25959, 0
7.21331, -17.3066, 1.32493, 0
6.34329, -17.4468, 1.08253, 0
12.9795, -17.6322, 2.25964, 0
12.8671, -17.3954, 1.91868, 0
7.00388, -17.2995, 2.46048, 0
12.9612, -17.3877, 2.18052, 0
14.184, -17.2237, 1.74792, 0
12.9535, -17.4955, 1.21326, 0
12.6661, -17.7224, 1.41427, 0
12.6363, -17.7564, 1.13305, 0
14.3139, -17.694, 1.02001, 0
6.25961, -17.372, 1.77442, 0
12.3273, -17.5049, 1.38921, 0
7.7318, -17.1604, 1.06409, 0
13.7221, -17.1058, 1.32119, 0
7.67607, -17.1725, 1.35995, 0
12.7748, -15.3114, 3.68878, 0
27.442, -35.0435, 5.84185, 0
31.9941, -36.9173, 5.48173, 0
28.218, -39.7157, 5.03691, 0
25.6452, -36.3759, 5.59839, 0
27.1121, -38.2435, 5.83002, 0
25.7176, -38.5526, 5.75641, 0
-3.56318, -14.6276, 5.62463, 0
-3.31616, -14.633, 5.0289, 0
3.19961, -13.1402, 1.35743, 0
2.39438, -14.8129, 1.2916, 0
2.86826, -14.1962, 1.77743, 0
2.84287, -12.6151, 1.56433, 0
-2.9843, -14.7231, 1.12476, 0
-4.82231, -14.6227, 1.23519, 0
-4.64921, -14.3643, 4.19216, 0
-2.34567, -14.4465, 2.04816, 0
-4.68233, -14.2548, 3.16401, 0
13.5647, -11.9137, 2.48464, 0
13.6588, -11.5511, 2.48947, 0
13.7388, -5.85837, 2.23511, 0
13.6275, -5.56546, 1.90596, 0
13.6324, -7.68003, 4.1816, 0
13.6385, -11.5615, 2.14866, 0
13.6537, -8.60756, 4.22492, 0
13.6996, -10.9421, 1.72437, 0
13.7109, -10.9131, 1.25661, 0
13.7035, -10.9306, 1.62778, 0
13.657, -14.1466, 2.89919, 0
13.98, -5.69836, 3.85163, 0
14.1175, -5.76827, 2.87161, 0
14.0911, -5.78371, 2.66388, 0
13.6598, -5.5953, 4.35487, 0
14.1514, -5.79757, 2.48031, 0
13.9871, -7.05248, 3.67503, 0
14.091, -6.9221, 3.69602, 0
14.5815, -5.97733, 3.77281, 0
14.3362, -5.88801, 4.51955, 0
14.3665, -5.91564, 4.3224, 0
14.4061, -5.65487, 3.7008, 0
14.2948, -5.58185, 4.07573, 0
14.2083, -5.87816, 4.58244, 0
14.1627, -5.61362, 4.14632, 0
13.9179, -5.70108, 3.88103, 0
13.7627, -5.79898, 4.93219, 0
13.6548, -5.59574, 2.99467, 0
13.5893, -5.59069, 3.18501, 0
13.6884, -5.61167, 2.60195, 0
13.6318, -5.60173, 2.79426, 0
13.4655, -5.63307, 4.8664, 0
13.5088, -5.65329, 4.47616, 0
13.6534, -5.6673, 4.10157, 0
13.6854, -5.69422, 3.70865, 0
14.0945, -5.60818, 4.86415, 0
14.087, -5.61013, 4.61034, 0
14.5237, -10.9822, 1.63495, 0
13.8157, -7.54138, 4.3568, 0
13.7175, -14.5474, 3.40096, 0
13.7389, -13.8199, 3.02905, 0
13.7362, -13.5368, 3.06187, 0
13.4793, -14.5685, 2.7526, 0
13.528, -13.5676, 4.05375, 0
13.6321, -13.5993, 3.37547, 0
13.6095, -8.58804, 2.73162, 0
13.7237, -14.5588, 3.08247, 0
13.7333, -13.5967, 2.63023, 0
13.7241, -8.55712, 2.49427, 0
13.7378, -13.5251, 2.22612, 0
13.7286, -7.51389, 2.239, 0
13.6613, -13.5234, 2.52365, 0
13.7208, -7.49513, 2.52507, 0
13.5355, -13.668, 4.22369, 0
13.4986, -13.6624, 4.44513, 0
13.5798, -13.6287, 4.00091, 0
13.9738, -11.504, 1.9507, 0
13.8776, -14.5147, 3.87269, 0
13.8417, -13.5516, 4.1422, 0
13.8121, -13.548, 4.36057, 0
13.9127, -13.5609, 3.6974, 0
14.5007, -11.4582, 1.08065, 0
14.2015, -11.4077, 1.66607, 0
14.059, -11.0098, 2.62959, 0
14.5084, -10.9181, 1.08083, 0
13.974, -8.52552, 3.69537, 0
13.9202, -7.51614, 4.09622, 0
14.3415, -5.27786, 1.6808, 0
14.084, -5.17387, 1.98391, 0
13.9726, -4.9914, 2.72332, 0
13.4996, -14.5734, 2.16093, 0
13.5076, -14.5767, 2.37296, 0
13.5001, -13.6811, 1.58514, 0
13.5044, -13.6026, 1.58931, 0
13.5118, -13.6031, 1.80395, 0
13.5186, -13.6026, 2.22954, 0
13.5768, -8.20828, 2.22703, 0
13.5654, -7.57813, 1.70472, 0
13.4556, -13.5433, 1.09103, 0
13.5091, -7.4827, 1.05829, 0
14.591, -10.9419, 4.63709, 0
14.3743, -5.20627, 4.38524, 0
14.2395, -5.18285, 4.17435, 0
13.6581, -11.5735, 1.95377, 0
14.194, -5.82195, 2.0937, 0
13.6575, -5.85114, 1.90024, 0
13.5711, -8.36714, 4.58326, 0
13.5572, -8.25572, 4.70765, 0
13.5552, -8.16273, 4.70672, 0
12.994, -5.15884, 4.68935, 0
13.9423, -11.5622, 1.76472, 0
13.9968, -11.1924, 1.8197, 0
14.3213, -5.5799, 2.37473, 0
14.433, -5.60282, 2.61085, 0
14.4491, -5.63031, 2.8548, 0
14.1736, -11.6274, 3.44368, 0
14.0244, -11.5743, 3.0096, 0
14.3458, -11.6833, 3.89793, 0
14.2759, -5.6302, 3.95203, 0
14.2985, -5.39477, 4.58375, 0
14.3638, -5.42737, 4.82898, 0
13.5629, -13.5364, 2.6969, 0
13.6093, -13.526, 2.3168, 0
13.6103, -8.5571, 2.97043, 0
13.6756, -7.55564, 2.66326, 0
13.713, -13.5811, 3.1913, 0
13.6488, -13.5846, 3.56882, 0
13.9562, -11.4263, 1.57272, 0
14.0042, -11.4129, 1.17264, 0
13.7224, -8.5685, 3.58111, 0
13.7949, -7.794, 3.21395, 0
13.7667, -7.59452, 3.41171, 0
13.7325, -7.5666, 3.60625, 0
13.6995, -7.58087, 3.79884, 0
13.912, -11.5568, 4.71465, 0
13.4979, -8.49351, 1.00172, 0
13.96, -5.46752, 4.55223, 0
13.4952, -14.5711, 1.94582, 0
13.5625, -8.55907, 1.84604, 0
13.8656, -4.98673, 3.26758, 0
13.9879, -4.98752, 2.44113, 0
12.4213, -5.67955, 1.4834, 0
13.6786, -14.5408, 3.56018, 0
14.0241, -5.26382, 1.73816, 0
13.6931, -8.53625, 3.85841, 0
13.6222, -8.52899, 4.06189, 0
13.2695, -14.6238, 3.33632, 0
12.9663, -11.5468, 1.32245, 0
12.9758, -11.3482, 2.17688, 0
12.9948, -11.3434, 2.38629, 0
13.263, -8.60948, 2.98175, 0
13.6205, -7.79588, 3.35019, 0
13.8218, -8.20799, 2.65007, 0
13.6555, -5.21418, 2.86247, 0
13.7402, -5.02378, 3.81229, 0
13.7371, -11.4154, 1.38682, 0
13.7636, -5.04932, 3.54011, 0
13.6644, -11.404, 1.05468, 0
13.7024, -11.0589, 1.46753, 0
14.0084, -8.43944, 1.20182, 0
13.9252, -8.46636, 1.63001, 0
13.5692, -7.50179, 3.10274, 0
13.2821, -8.6108, 3.19849, 0
13.5485, -14.499, 3.77996, 0
13.6506, -5.32389, 1.97965, 0
13.6588, -11.4394, 2.76129, 0
12.9919, -11.5415, 1.53405, 0
13.4587, -11.5585, 3.06254, 0
13.0155, -11.5363, 1.74548, 0
13.4874, -11.2806, 2.58161, 0
13.7095, -11.0448, 2.0202, 0
13.7168, -11.0311, 2.57076, 0
14.2981, -5.14779, 1.01688, 0
13.7233, -5.03074, 2.58717, 0
13.6243, -13.5793, 2.87144, 0
13.7008, -14.5166, 2.10087, 0
13.3718, -11.5735, 4.39757, 0
13.559, -10.968, 2.00342, 0
13.5723, -10.9894, 2.36962, 0
13.5682, -10.986, 2.65164, 0
13.8309, -8.39235, 1.926, 0
13.6099, -7.51914, 3.30987, 0
13.298, -11.4203, 2.80619, 0
13.6295, -8.5704, 4.45709, 0
13.6527, -8.56242, 4.00697, 0
13.4632, -8.38939, 1.48043, 0
13.4725, -8.40128, 1.70606, 0
13.6119, -7.58961, 3.88674, 0
12.8125, -5.28251, 2.31352, 0
13.5554, -14.2541, 4.54293, 0
13.6828, -5.31397, 2.62183, 0
13.4949, -10.9341, 1.76721, 0
13.7179, -5.63792, 2.48973, 0
13.632, -8.55204, 4.23015, 0
13.5961, -13.9359, 2.87795, 0
13.7544, -14.5753, 4.40457, 0
13.6054, -8.22161, 4.0726, 0
13.5775, -14.54, 4.06076, 0
13.6652, -5.3036, 2.48766, 0
13.6508, -14.4783, 3.07293, 0
13.9553, -5.42826, 1.1521, 0
13.6349, -13.7031, 3.66197, 0
13.5561, -14.057, 3.09937, 0
13.6582, -5.00576, 1.31842, 0
13.5767, -8.02667, 3.24851, 0
13.6261, -7.90691, 2.92084, 0
13.5209, -14.4515, 2.53969, 0
13.6836, -14.4555, 2.47679, 0
12.5627, -5.34484, 2.50063, 0
13.5324, -8.44538, 2.47604, 0
12.902, -5.60161, 2.29131, 0
13.9006, -8.51915, 2.09434, 0
13.5983, -7.51622, 3.62116, 0
12.9497, -5.49596, 2.01882, 0
13.4913, -8.4251, 2.15749, 0
12.515, -5.34643, 2.22365, 0
13.5225, -14.1644, 4.03492, 0
13.7239, -5.24755, 2.00244, 0
13.502, -8.47195, 3.796, 0
13.5375, -14.5749, 2.93294, 0
13.5347, -14.0327, 2.71465, 0
13.6694, -5.21501, 1.4957, 0
13.692, -5.2359, 2.44592, 0
13.5658, -8.47553, 2.81738, 0
13.5568, -8.54414, 3.20427, 0
13.5523, -8.5174, 3.64186, 0
13.5813, -13.6671, 2.7264, 0
13.7875, -14.6031, 4.16949, 0
13.5638, -14.03, 3.52566, 0
13.6906, -4.99139, 1.77397, 0
13.5538, -8.03439, 2.81241, 0
13.4802, -14.604, 3.52771, 0
13.4811, -14.6392, 3.81072, 0
14.1199, -5.34557, 2.48868, 0
12.4404, -6.05123, 1.51044, 0
13.5392, -8.5974, 3.53879, 0
13.6863, -7.65574, 4.0189, 0
13.5391, -8.62665, 3.76215, 0
13.5399, -7.93404, 3.83145, 0
13.5949, -14.5619, 3.41176, 0
13.6007, -13.8994, 3.18478, 0
13.6831, -14.6028, 4.85813, 0
13.5983, -8.55781, 3.28985, 0
13.6113, -8.19183, 3.10732, 0
13.5424, -14.4981, 3.49595, 0
13.6624, -5.31762, 1.94503, 0
13.5764, -8.52992, 3.08619, 0
12.9889, -5.17318, 1.457, 0
13.4686, -5.31648, 3.11746, 0
13.2413, -14.5994, 2.92527, 0
13.6914, -5.32602, 4.60041, 0
13.7627, -10.9996, 4.49982, 0
12.1699, -12.5674, 2.03392, 0
13.7435, -11.0038, 3.94604, 0
12.9867, -5.15477, 1.21778, 0
13.5994, -5.35349, 2.66496, 0
13.6503, -11.4064, 2.3733, 0
13.9953, -10.9577, 1.18035, 0
13.1052, -11.6575, 3.94254, 0
13.0942, -11.6023, 3.65847, 0
13.0974, -11.6718, 2.27389, 0
13.092, -11.6387, 2.55063, 0
13.1226, -11.7311, 1.15482, 0
13.3393, -11.4639, 1.13109, 0
13.3285, -5.77401, 2.4009, 0
13.2562, -5.54229, 2.85726, 0
13.2608, -5.54377, 2.63075, 0
12.5627, -12.1025, 2.69487, 0
13.6063, -7.77648, 3.72422, 0
12.6202, -12.1977, 1.57455, 0
12.5909, -12.1395, 1.85639, 0
12.8936, -11.8962, 2.3887, 0
13.6645, -5.30426, 1.38872, 0
13.5538, -14.3204, 3.35861, 0
12.9278, -5.92301, 4.05249, 0
12.9824, -5.97115, 2.22942, 0
13.563, -11.1296, 3.2825, 0
13.2261, -5.87392, 2.45631, 0
13.3122, -5.76804, 1.48355, 0
13.4804, -10.9306, 2.32416, 0
13.3898, -5.2677, 4.21605, 0
13.107, -5.80108, 4.75581, 0
13.6889, -14.4997, 2.66202, 0
13.0328, -11.3338, 2.80425, 0
13.3245, -5.27373, 2.11063, 0
13.339, -11.2148, 1.20329, 0
13.9564, -5.17141, 1.03286, 0
13.2679, -5.69634, 3.54175, 0
13.7869, -11.5839, 2.96677, 0
12.4087, -12.2692, 1.45792, 0
13.6905, -10.9045, 3.93854, 0
13.653, -11.4063, 2.87812, 0
13.3359, -11.2149, 1.4812, 0
13.3329, -11.215, 1.75947, 0
13.3077, -11.2184, 4.30491, 0
13.3439, -5.28316, 3.6817, 0
13.3426, -5.28354, 3.92166, 0
13.3487, -5.28413, 3.44405, 0
12.7581, -12.1517, 4.51245, 0
13.319, -11.2669, 2.37491, 0
13.2749, -5.05613, 4.85857, 0
13.0085, -11.9095, 2.80725, 0
13.6515, -5.32946, 4.19931, 0
13.3816, -5.94263, 1.16895, 0
13.0035, -11.8881, 3.92602, 0
12.8779, -11.8707, 1.49925, 0
13.9568, -14.4381, 1.13647, 0
13.7885, -11.561, 4.4392, 0
13.3634, -5.9198, 2.09456, 0
13.7395, -11.7708, 4.21428, 0
13.6676, -5.32911, 4.80818, 0
13.3682, -5.92562, 1.86388, 0
13.6911, -11.3977, 1.94806, 0
12.9516, -11.8694, 4.48538, 0
13.3133, -5.23083, 3.42813, 0
12.9252, -6.08224, 4.51199, 0
13.3401, -5.23607, 1.33535, 0
12.9633, -11.2363, 1.09839, 0
13.2811, -5.25284, 2.39977, 0
13.3849, -5.26196, 1.42687, 0
13.806, -14.4848, 1.44277, 0
12.6133, -6.33327, 4.43684, 0
13.3027, -5.2285, 4.14749, 0
13.3529, -5.9041, 2.78537, 0
13.3587, -5.91405, 2.32493, 0
12.7687, -11.8145, 4.3458, 0
13.3312, -5.23433, 2.02527, 0
13.3066, -5.22943, 3.90611, 0
12.9073, -11.8723, 2.05857, 0
13.6798, -5.32011, 3.68897, 0
13.0897, -11.6147, 4.21708, 0
13.7229, -5.37107, 3.846, 0
13.3266, -5.23311, 2.25632, 0
13.0727, -11.9511, 1.12513, 0
13.6976, -5.36059, 3.36464, 0
13.3337, -5.23471, 1.79468, 0
13.3488, -11.2057, 2.1419, 0
13.5695, -14.4422, 2.15626, 0
12.1458, -12.4942, 1.47197, 0
13.5569, -14.4295, 1.88378, 0
12.9685, -5.95898, 2.68523, 0
12.9753, -5.96501, 2.45747, 0
13.3395, -11.2065, 3.2717, 0
13.3474, -11.2066, 2.42279, 0
13.3998, -11.7348, 2.26648, 0
13.383, -5.26752, 4.71082, 0
13.3867, -5.26773, 4.46245, 0
13.4095, -4.95069, 2.57063, 0
13.3794, -5.26131, 1.88844, 0
14.1434, -5.31656, 1.50462, 0
13.7717, -14.4638, 1.66622, 0
12.6001, -6.32008, 4.90444, 0
13.3883, -5.26259, 1.19707, 0
13.8942, -14.474, 1.34536, 0
12.62, -6.33994, 4.20461, 0
13.3615, -5.25879, 3.29629, 0
13.5384, -10.9563, 3.99823, 0
13.3755, -5.2605, 2.1202, 0
13.6009, -7.61105, 2.70239, 0
12.1669, -12.5329, 1.18996, 0
13.3868, -11.1798, 3.53048, 0
13.374, -5.26069, 2.35327, 0
13.3408, -11.2966, 4.26423, 0
13.416, -5.23697, 2.4218, 0
13.4088, -11.3111, 4.10867, 0
13.5857, -11.0002, 1.25024, 0
13.5493, -10.9708, 4.08326, 0
13.0286, -4.983, 1.84816, 0
13.0971, -11.9503, 1.40454, 0
13.3355, -5.27286, 1.19091, 0
12.5975, -12.0716, 3.46581, 0
13.4318, -5.24315, 1.49236, 0
13.071, -6.18663, 1.73951, 0
13.0355, -5.43629, 3.39486, 0
13.3326, -5.27302, 1.42042, 0
13.3444, -5.256, 4.51111, 0
13.6788, -14.217, 4.90242, 0
13.434, -11.3323, 2.10139, 0
13.3862, -5.22536, 4.59357, 0
13.3478, -5.25653, 4.26416, 0
13.5798, -10.9954, 1.80847, 0
13.4374, -5.24533, 1.03169, 0
13.3275, -5.2736, 1.88019, 0
13.3404, -5.25523, 4.76015, 0
13.4297, -11.3286, 2.38403, 0
12.9047, -11.0323, 1.7663, 0
13.1235, -11.6897, 4.50718, 0
13.6548, -11.0053, 2.43775, 0
13.8344, -8.15857, 4.2057, 0
12.8308, -6.25878, 2.59852, 0
13.3474, -11.2994, 3.68353, 0
13.3079, -11.3616, 3.00204, 0
13.0403, -6.16619, 2.202, 0
13.4282, -5.24174, 1.72352, 0
13.3823, -5.22383, 4.84476, 0
13.2043, -6.20407, 2.55874, 0
13.4177, -11.3185, 3.52791, 0
13.4822, -11.2645, 2.85624, 0
13.2293, -6.22502, 2.09838, 0
12.7937, -5.4367, 3.71319, 0
13.4405, -11.3378, 1.53839, 0
13.3946, -5.22863, 3.85283, 0
13.4118, -11.3136, 3.81697, 0
13.4049, -11.3013, 3.44331, 0
13.2162, -6.21424, 2.3288, 0
12.8202, -5.42951, 3.99437, 0
13.3553, -5.25715, 3.53487, 0
12.6438, -12.1031, 2.06861, 0
13.4337, -5.24391, 1.26167, 0
13.3895, -5.22663, 4.34458, 0
13.1028, -11.9412, 2.52698, 0
12.5798, -12.0931, 4.31303, 0
12.5655, -12.0657, 4.59263, 0
13.438, -11.3357, 1.8196, 0
12.603, -12.1291, 4.03509, 0
13.4443, -11.341, 1.25798, 0
12.9163, -5.53854, 1.74401, 0
13.4056, -11.3083, 4.40234, 0
13.3345, -11.2067, 3.84485, 0
13.4244, -5.24026, 1.95542, 0
14.4546, -5.95539, 3.93936, 0
13.6528, -5.35345, 3.08498, 0
13.3234, -5.0628, 1.57081, 0
13.2982, -5.22736, 4.39058, 0
13.0885, -11.6288, 4.77949, 0
13.2892, -5.86428, 1.50349, 0
12.9773, -5.17579, 3.14116, 0
13.3531, -5.25707, 3.77613, 0
12.6308, -12.0774, 2.34746, 0
13.5542, -14.3339, 2.72522, 0
12.8772, -12.248, 1.14143, 0
12.5513, -12.0384, 4.87264, 0
13.1052, -6.20877, 1.274, 0
13.0353, -5.40402, 2.56181, 0
13.2722, -5.85927, 1.27143, 0
12.7379, -11.8143, 4.0642, 0
13.582, -10.9972, 1.52895, 0
12.9959, -5.02331, 2.06256, 0
12.9453, -11.5234, 4.28529, 0
12.6502, -6.36811, 3.28334, 0
13.6668, -10.9424, 2.19133, 0
12.6288, -6.34762, 3.97355, 0
13.5631, -10.9474, 4.02509, 0
13.3092, -5.76733, 1.02181, 0
13.019, -14.7176, 2.73615, 0
13.3166, -5.76937, 1.94293, 0
13.4745, -10.93, 2.60315, 0
13.5099, -10.938, 1.21031, 0
12.9475, -8.90929, 4.15832, 0
13.3096, -5.76722, 1.25314, 0
13.4876, -10.9324, 2.04561, 0
13.7052, -11.4798, 1.98341, 0
12.9763, -11.8681, 4.76986, 0
13.3356, -11.2054, 3.5571, 0
14.0179, -10.9229, 1.0604, 0
13.3155, -11.2709, 4.02277, 0
13.9571, -10.9629, 4.80942, 0
13.5545, -14.3277, 3.04177, 0
13.6692, -5.31683, 1.22482, 0
13.0912, -11.3195, 3.43048, 0
13.028, -6.15746, 2.43258, 0
13.3374, -5.77762, 2.62988, 0
13.5072, -10.8703, 3.74582, 0
13.1398, -5.84592, 1.96921, 0
13.5351, -10.89, 4.28239, 0
13.8241, -11.5803, 2.70758, 0
12.3891, -12.2658, 1.17813, 0
13.5996, -10.9173, 1.47524, 0
12.9982, -8.88317, 4.42098, 0
13.5359, -10.934, 4.59449, 0
13.3389, -11.1637, 2.59066, 0
13.1448, -5.85068, 1.73883, 0
14.2328, -5.17772, 1.24018, 0
13.5268, -10.9309, 4.8821, 0
13.7528, -11.5876, 3.22504, 0
13.1106, -5.81291, 3.81562, 0
12.3497, -12.2433, 2.2996, 0
13.9852, -5.22046, 1.74363, 0
13.1057, -5.80309, 4.5186, 0
14.1683, -5.20736, 1.46329, 0
13.1075, -5.80643, 4.28325, 0
13.3272, -11.2072, 4.71855, 0
12.9462, -6.09809, 4.04675, 0
12.1296, -12.5085, 2.31345, 0
13.5442, -10.9666, 4.66962, 0
12.8659, -11.2413, 4.0216, 0
13.0868, -6.1971, 1.50725, 0
13.0294, -5.40732, 3.13224, 0
13.3288, -11.2063, 4.42498, 0
12.9669, -6.11382, 3.58406, 0
13.2923, -5.05845, 3.65449, 0
12.9145, -6.07417, 4.74581, 0
12.0933, -12.4841, 3.43402, 0
12.8682, -11.8745, 1.21953, 0
13.8166, -11.1111, 3.27063, 0
12.8382, -11.8495, 2.89736, 0
13.698, -11.0652, 1.19017, 0
13.7499, -10.9991, 4.22221, 0
12.7865, -11.8289, 4.01653, 0
13.6539, -11.062, 3.73307, 0
12.6966, -6.56349, 2.37141, 0
13.991, -5.18862, 4.81354, 0
12.6655, -12.0836, 1.22827, 0
13.5308, -7.87295, 2.53672, 0
12.3719, -11.4181, 1.6975, 0
13.3296, -11.27, 1.54769, 0
13.3407, -11.2979, 4.55867, 0
13.0668, -11.4365, 1.90114, 0
13.3363, -11.2956, 4.85401, 0
12.8162, -6.23439, 3.98839, 0
12.8416, -6.27266, 1.90769, 0
13.3436, -11.4382, 2.2484, 0
12.8543, -6.28751, 1.21493, 0
12.8236, -6.22638, 4.93537, 0
12.8484, -6.28169, 1.44634, 0
12.6572, -6.37484, 3.05414, 0
12.4525, -5.67188, 2.06969, 0
13.1313, -11.7593, 1.71534, 0
12.2754, -12.1988, 4.54278, 0
13.3063, -5.06043, 2.71902, 0
12.4907, -5.65997, 2.35184, 0
13.1081, -11.7098, 1.99581, 0
12.7674, -6.6179, 1.21409, 0
12.5992, -5.56039, 2.60714, 0
12.7222, -6.58378, 1.91039, 0
13.7051, -11.0512, 1.74427, 0
12.8129, -11.8272, 4.5849, 0
13.439, -11.5946, 3.29045, 0
12.6832, -6.59203, 3.52971, 0
12.8189, -11.5911, 4.71535, 0
12.6653, -6.57905, 3.76048, 0
12.6347, -6.5558, 4.22367, 0
13.6134, -7.73131, 2.61953, 0
13.6553, -8.04107, 3.20712, 0
12.4267, -11.3985, 1.95507, 0
13.6717, -8.53504, 4.10289, 0
13.6764, -11.0315, 2.85337, 0
13.552, -10.9644, 2.85023, 0
13.2361, -5.88062, 2.2252, 0
13.0342, -5.16622, 3.7028, 0
13.5469, -10.9688, 4.37537, 0
13.3414, -5.88425, 3.70853, 0
12.0753, -12.4481, 3.7115, 0
12.0619, -12.417, 3.98939, 0
12.891, -11.87, 1.77881, 0
13.2068, -10.9485, 1.12164, 0
12.0554, -12.4563, 4.56029, 0
13.403, -5.2319, 3.36984, 0
13.3424, -5.87354, 4.40814, 0
13.4906, -5.08566, 3.1259, 0
13.342, -5.87709, 4.17403, 0
13.9549, -5.29556, 2.19921, 0
13.4014, -5.23127, 3.61114, 0
13.1127, -5.96419, 4.85113, 0
13.1409, -5.99393, 3.92722, 0
13.402, -11.3053, 4.69809, 0
13.1842, -6.21858, 3.94513, 0
13.1563, -8.73295, 3.63916, 0
12.5362, -11.3593, 2.46995, 0
13.6559, -5.08044, 4.08253, 0
14.0275, -5.34539, 2.76139, 0
13.9567, -5.36389, 3.31251, 0
14.0994, -5.34606, 3.04557, 0
13.6914, -14.537, 4.67311, 0
13.8274, -11.4805, 3.52269, 0
13.8663, -11.4729, 3.26703, 0
13.9849, -11.4501, 2.49543, 0
13.4125, -11.5527, 4.74561, 0
13.7183, -11.5912, 3.48251, 0
13.6676, -11.5991, 3.99705, 0
13.6021, -5.6537, 2.21899, 0
13.5697, -5.61802, 3.05451, 0
13.4997, -5.56288, 4.15544, 0
13.5384, -5.58396, 3.88233, 0
13.589, -5.60115, 3.6075, 0
13.3845, -11.7127, 2.79052, 0
13.3519, -11.6583, 4.08362, 0
13.3662, -11.68, 3.56842, 0
13.1061, -5.71269, 2.88477, 0
13.2141, -5.67649, 3.42925, 0
13.0879, -11.81, 3.36775, 0
13.061, -11.8347, 3.10838, 0
13.0619, -5.88615, 2.59805, 0
12.9391, -5.18038, 4.15762, 0
13.0776, -5.8512, 2.87909, 0
12.9811, -5.1815, 4.43882, 0
12.9959, -11.6051, 3.19813, 0
13.0215, -11.5715, 3.46027, 0
13.087, -11.9896, 3.22166, 0
13.0325, -11.1816, 4.80794, 0
13.1508, -11.9229, 3.74514, 0
12.9297, -5.72765, 3.44316, 0
12.9805, -5.65656, 4.00135, 0
12.8903, -5.79534, 2.87587, 0
12.9533, -5.69266, 3.72332, 0
13.044, -6.09186, 3.18496, 0
12.9918, -6.13718, 2.91102, 0
12.971, -12.0717, 4.23579, 0
12.9366, -5.33056, 4.54117, 0
12.968, -5.32184, 4.8207, 0
12.4173, -5.68269, 1.78485, 0
12.2823, -5.79058, 1.24098, 0
13.0178, -5.6696, 4.5371, 0
12.7305, -5.8896, 2.88504, 0
12.5778, -5.94152, 2.34688, 0
12.6522, -5.91621, 2.61648, 0
12.6081, -5.99413, 2.04683, 0
12.4662, -11.6766, 2.59839, 0
13.6539, -8.50163, 3.21255, 0
12.3653, -11.7432, 2.07844, 0
14.0526, -11.102, 2.93111, 0
12.6171, -11.5775, 3.37212, 0
13.9866, -11.1438, 3.32418, 0
13.6549, -8.48583, 3.05681, 0
12.3148, -11.7767, 1.81678, 0
12.5166, -11.6435, 2.85698, 0
12.3343, -12.112, 1.84391, 0
13.9793, -11.4405, 2.59632, 0
12.5337, -11.9746, 2.88569, 0
12.3836, -12.0774, 2.10622, 0
14.0258, -11.4833, 2.91665, 0
12.6317, -11.9065, 3.40178, 0
12.7299, -11.8387, 3.91583, 0
12.4412, -5.34158, 1.66307, 0
12.3249, -5.43116, 1.40474, 0
13.8973, -11.8556, 2.83725, 0
12.2761, -5.43332, 1.12701, 0
12.5011, -5.69473, 1.65838, 0
13.9883, -5.74494, 3.23758, 0
12.595, -8.86607, 2.03896, 0
14.2117, -5.60456, 3.71617, 0
12.6499, -8.85229, 2.30208, 0
12.7554, -11.2809, 3.50218, 0
12.8118, -11.2611, 3.76136, 0
12.2623, -11.4573, 1.18138, 0
13.7319, -8.49834, 2.57056, 0
12.3221, -11.7696, 1.4622, 0
13.9604, -11.0708, 2.33076, 0
12.7358, -11.6061, 3.528, 0
13.7657, -8.47857, 2.35422, 0
12.2689, -11.7901, 1.20348, 0
13.994, -11.0739, 2.07371, 0
12.6807, -14.7622, 2.73669, 0
13.9742, -11.8867, 2.51001, 0
13.9515, -11.9317, 4.93472, 0
12.6536, -5.54495, 3.17411, 0
14.0567, -11.918, 2.18309, 0
12.712, -5.30301, 1.47642, 0
12.7438, -5.29682, 1.75618, 0
12.6813, -5.30876, 1.19574, 0
14.0734, -11.9728, 4.61329, 0
12.7196, -5.25728, 3.04415, 0
12.9253, -5.60951, 1.74379, 0
12.8633, -5.62707, 1.46908, 0
13.0324, -8.72889, 2.74697, 0
12.9591, -8.75851, 2.21448, 0
12.6673, -11.5446, 3.62895, 0
13.0159, -11.2103, 3.46896, 0
12.7191, -11.3612, 1.38102, 0
12.7896, -11.6559, 1.93309, 0
12.8219, -11.6364, 2.19443, 0
12.7255, -11.6949, 1.40902, 0
14.0227, -8.45821, 1.67828, 0
12.6936, -11.7145, 1.14599, 0
14.0838, -8.42775, 1.47042, 0
13.2153, -5.22786, 3.07633, 0
12.4158, -11.7099, 2.33892, 0
13.6627, -8.43051, 3.48179, 0
13.5367, -8.63636, 4.8189, 0
14.3324, -11.5565, 1.35584, 0
12.9094, -5.17475, 3.87549, 0
13.0036, -5.1718, 3.42204, 0
13.5989, -13.7997, 3.77073, 0
13.816, -6.19633, 1.67451, 0
13.932, -10.8736, 4.80346, 0
12.978, -11.2292, 3.20748, 0
13.3495, -11.2494, 3.13608, 0
14.0624, -11.1246, 3.58733, 0
13.8066, -11.4885, 3.77957, 0
13.9634, -11.356, 4.56891, 0
13.6585, -11.3413, 4.14839, 0
13.9827, -11.356, 4.81094, 0
14.0548, -11.5874, 1.97955, 0
12.7056, -5.01165, 1.08995, 0
14.0722, -11.6117, 4.57264, 0
13.9676, -11.6387, 4.22297, 0
12.7049, -5.24642, 2.76004, 0
13.9704, -11.572, 4.91682, 0
12.8001, -5.35489, 1.07508, 0
12.9341, -5.32867, 4.25552, 0
12.8836, -5.34225, 1.35502, 0
13.7509, -8.53169, 4.55749, 0
13.7132, -8.5812, 4.81622, 0
12.8516, -12.1988, 1.42512, 0
12.7251, -11.0635, 1.23806, 0
12.9792, -11.2016, 4.54452, 0
13.0003, -10.992, 1.48662, 0
12.7174, -11.5117, 3.88548, 0
12.7471, -11.3989, 1.25768, 0
12.7353, -14.7905, 3.00659, 0
13.9193, -5.19957, 4.50715, 0
13.7739, -10.8943, 4.22384, 0
13.9146, -11.2149, 4.8197, 0
13.5431, -14.475, 1.61026, 0
13.9719, -5.05098, 3.06214, 0
13.9633, -11.5123, 3.45201, 0
13.985, -11.4974, 3.18358, 0
12.9027, -11.4177, 4.79867, 0
13.8575, -10.884, 4.51239, 0
14.2913, -11.3429, 4.16297, 0
14.1131, -5.15882, 4.4461, 0
13.7885, -11.3359, 4.51945, 0
14.0808, -10.8205, 4.78668, 0
12.6463, -11.3202, 2.98519, 0
13.9898, -11.2009, 4.51326, 0
13.359, -11.6691, 3.8263, 0
13.6067, -8.06778, 3.63126, 0
13.5613, -6.2445, 1.63137, 0
13.2091, -14.6671, 3.66246, 0
13.807, -11.3289, 4.77745, 0
13.3765, -5.93668, 1.40124, 0
13.91, -4.96144, 4.90306, 0
13.616, -14.5586, 4.54496, 0
13.6122, -14.5714, 4.18812, 0
13.6014, -14.5721, 4.65696, 0
13.1349, -6.22576, 1.03889, 0
14.0013, -5.00197, 3.84098, 0
14.0149, -5.02619, 3.56544, 0
14.0065, -5.40151, 4.14418, 0
12.7071, -8.78161, 2.56239, 0
14.093, -5.39816, 3.87637, 0
14.055, -5.43367, 3.66328, 0
13.9507, -5.4439, 4.76854, 0
12.8174, -11.446, 4.39814, 0
13.8277, 0.206138, 1.95692, 0
13.7523, 0.261442, 2.30596, 0
13.72, 0.323436, 2.99786, 0
13.5691, -2.4578, 2.41726, 0
13.6679, -1.76076, 3.29494, 0
13.7272, 3.56001, 4.093, 0
13.6617, 4.10636, 2.39682, 0
13.6127, -2.04048, 4.65389, 0
14.1626, 0.418209, 3.65233, 0
14.0549, 0.399795, 3.88818, 0
14.1342, 0.362318, 3.37362, 0
14.3041, 0.32616, 2.62352, 0
14.2916, 0.289709, 2.35667, 0
14.473, 0.26734, 1.61221, 0
14.6348, 0.135469, 4.15479, 0
14.6889, 0.0977259, 3.9037, 0
14.4841, 0.143453, 4.37488, 0
14.2633, -2.02342, 3.22541, 0
14.2177, -1.93747, 3.20884, 0
14.8421, 0.0964012, 3.25521, 0
14.6448, 0.210191, 4.0003, 0
14.7063, 0.110689, 3.48544, 0
14.5003, 0.356247, 3.42152, 0
14.6382, 0.425557, 3.18673, 0
14.1363, -0.846159, 3.48904, 0
14.4779, 0.256813, 4.32081, 0
14.5268, 0.155787, 3.80261, 0
14.3246, 0.407299, 3.74582, 0
14.2507, 0.483119, 3.99157, 0
14.2989, 4.82026, 2.99796, 0
14.0825, 0.316173, 4.63582, 0
13.9379, 0.30037, 4.87029, 0
13.9523, 0.276546, 4.34979, 0
13.6693, 0.449885, 4.3256, 0
13.7714, 0.422226, 3.82175, 0
13.8756, 0.426146, 3.57778, 0
14.0221, 0.441387, 3.06871, 0
14.186, 0.446464, 4.77343, 0
13.8419, -4.93301, 3.38251, 0
13.8954, -4.94332, 2.87085, 0
14.0108, -4.92364, 2.06524, 0
13.8333, -2.51296, 4.33875, 0
14.2742, 0.905596, 2.15232, 0
13.7087, -1.9687, 3.8872, 0
13.7035, -1.47461, 3.76238, 0
13.7052, 3.75422, 3.23142, 0
13.4173, 4.30283, 2.51722, 0
13.4967, -1.57063, 4.082, 0
13.4824, 3.81426, 4.0537, 0
13.4631, 4.30374, 3.3085, 0
13.5985, -1.57266, 2.58457, 0
13.5841, 3.47445, 2.39138, 0
13.7116, -1.53612, 2.12351, 0
13.7088, 3.52872, 2.16254, 0
13.7054, 3.74768, 2.79432, 0
13.7015, 4.4572, 2.06325, 0
13.6992, 4.41003, 2.40538, 0
13.7327, -2.44809, 2.30883, 0
13.7031, -1.52601, 2.81297, 0
13.7199, -1.48446, 2.53918, 0
13.7519, 3.67618, 2.30747, 0
13.7384, 4.43584, 2.60717, 0
13.7493, -2.47493, 2.77339, 0
13.7563, -1.87926, 2.76625, 0
13.7297, -1.51942, 3.03649, 0
13.7248, -2.59272, 4.26371, 0
13.6877, -2.61543, 4.52313, 0
13.7057, -1.62202, 4.47227, 0
13.7501, -1.5918, 4.20264, 0
13.7348, 3.43316, 4.79131, 0
13.8054, 4.32087, 4.41903, 0
13.9521, -2.46407, 4.1858, 0
13.9132, -2.47911, 4.44304, 0
13.991, -2.44913, 3.92631, 0
14.016, -1.5205, 3.82704, 0
13.9756, -1.53775, 4.09579, 0
13.9634, 1.06505, 2.94347, 0
14.0149, 1.09538, 2.63829, 0
13.9531, 3.49968, 4.47428, 0
13.5796, -1.8641, 1.38266, 0
13.5929, -1.50267, 2.07468, 0
13.5869, -1.50993, 1.55235, 0
13.6083, 3.49712, 2.03143, 0
13.5867, 3.6517, 1.35871, 0
13.5843, 4.42651, 1.48643, 0
13.5891, 4.49527, 1.79829, 0
13.5358, -2.09156, 1.20524, 0
13.7928, 1.16574, 1.72084, 0
13.641, -2.62872, 4.81483, 0
12.6579, 0.685784, 1.19318, 0
12.5081, 0.677589, 1.92514, 0
12.6445, 0.800183, 2.23185, 0
13.4448, 3.54447, 1.65437, 0
12.8648, 0.212479, 2.43429, 0
12.624, 0.495256, 2.26316, 0
12.941, -2.75273, 1.90347, 0
13.0277, -2.74258, 2.49619, 0
13.6902, 0.688199, 2.56145, 0
13.7032, 0.705622, 3.12078, 0
13.1207, 0.535815, 2.44581, 0
13.3559, 0.891401, 2.64527, 0
13.4035, 1.04943, 3.42369, 0
13.0519, -0.0848246, 2.1012, 0
13.0076, 3.3038, 2.11415, 0
13.01, 3.50408, 2.11365, 0
13.6029, 0.719435, 3.07114, 0
13.0637, 0.543421, 2.78357, 0
13.3994, 0.665458, 3.43291, 0
13.1339, -0.0205517, 2.41202, 0
13.0659, 0.0234776, 2.75949, 0
12.7355, 3.20276, 1.91661, 0
12.7385, 3.49877, 1.92311, 0
13.0046, -2.93253, 3.88554, 0
13.542, -4.92316, 1.03056, 0
14.2854, 0.41362, 4.82886, 0
12.9498, -2.94208, 3.59154, 0
13.5428, 0.118912, 1.15943, 0
12.8605, 3.5808, 2.4358, 0
14.2764, 0.897027, 1.84417, 0
13.1954, 0.127897, 3.38952, 0
13.2883, -2.77394, 4.72936, 0
13.3432, -2.73941, 4.45677, 0
13.3182, -2.78542, 4.16639, 0
13.7691, -4.8975, 4.27782, 0
12.9478, 0.550354, 1.74263, 0
13.3399, 3.28333, 3.97831, 0
13.5976, -2.7173, 4.39915, 0
13.6638, 3.57503, 3.56697, 0
13.5199, -1.83716, 2.09542, 0
13.7132, 3.64052, 3.93722, 0
14.0168, 4.46795, 4.05729, 0
13.4978, -2.55982, 2.60161, 0
13.6334, -2.50328, 4.17227, 0
13.5689, -1.80428, 3.3574, 0
13.31, -4.90267, 2.79914, 0
12.8404, 0.188083, 2.55489, 0
13.3013, -2.61719, 2.94565, 0
13.3462, -2.13488, 3.48915, 0
13.2402, 0.6231, 1.1079, 0
13.2594, 0.622957, 1.69239, 0
13.1946, 0.613556, 1.41182, 0
13.7233, -2.56964, 3.10512, 0
13.6978, -2.55379, 3.61865, 0
14.1306, 0.847201, 1.318, 0
12.9832, -0.139789, 1.78533, 0
13.9725, 3.49663, 2.39635, 0
14.0209, -2.4825, 1.63454, 0
13.3845, -0.724763, 4.36837, 0
13.9267, -2.50951, 2.13571, 0
13.6096, -1.53549, 3.60004, 0
13.9741, -2.49581, 1.88506, 0
13.8454, -1.59811, 3.433, 0
13.6839, 0.709847, 2.43037, 0
13.6601, 0.780792, 2.42846, 0
13.6642, 0.784015, 2.04472, 0
14.0424, -4.88581, 1.47019, 0
13.9147, -4.94383, 1.91677, 0
13.9785, -4.91483, 1.69353, 0
14.062, -2.46204, 2.28043, 0
13.8215, 1.05769, 2.93484, 0
13.9619, 1.10118, 2.37698, 0
13.9873, 4.39462, 3.40003, 0
13.7565, -4.88835, 1.97625, 0
13.7599, 1.16117, 2.00756, 0
12.8693, 0.659696, 3.55014, 0
13.0359, 0.66487, 3.98019, 0
13.8642, 1.17983, 1.14782, 0
13.71, 1.07666, 4.26835, 0
12.9764, 0.729267, 4.19817, 0
13.8279, 1.1722, 1.43438, 0
13.6948, 1.0694, 4.36051, 0
12.9988, 0.699326, 4.52741, 0
13.0786, 0.676792, 3.35714, 0
13.5576, -0.265295, 1.77041, 0
13.0656, 0.712009, 3.02432, 0
13.6672, 3.51885, 3.10352, 0
13.8033, 0.683733, 1.34727, 0
13.66, 3.99754, 4.3289, 0
13.4915, -2.40538, 2.14361, 0
13.4803, -1.61502, 1.71379, 0
13.2803, -0.515172, 3.26264, 0
13.5105, 4.47522, 2.2203, 0
13.6415, 4.37115, 3.76802, 0
13.6165, -2.03166, 3.4073, 0
13.6105, -1.91662, 3.79378, 0
13.6481, -2.56996, 3.58693, 0
13.6953, 3.44668, 3.21411, 0
13.6558, -2.47855, 3.27632, 0
13.6674, -2.02325, 2.92566, 0
13.5517, 3.38928, 2.46001, 0
13.5666, 3.37623, 2.77799, 0
13.5325, 3.90089, 2.13098, 0
13.5991, -2.24465, 3.75927, 0
13.5834, 3.76, 2.60109, 0
13.4202, -0.0288787, 1.80964, 0
14.0085, 0.731883, 1.82215, 0
13.6236, -2.50239, 3.85611, 0
13.6511, 3.52936, 3.3993, 0
13.6006, -1.89901, 2.86962, 0
13.616, -1.57243, 3.77589, 0
13.4353, -0.203584, 3.97294, 0
13.3349, -4.92785, 2.19494, 0
13.3861, -0.0452228, 2.66851, 0
13.3331, -4.92599, 2.31662, 0
13.3695, -0.0533976, 3.09798, 0
13.2814, -4.91096, 1.11084, 0
13.5139, -0.752059, 1.5317, 0
13.1277, 0.0736313, 3.07539, 0
13.334, -0.0258317, 3.96209, 0
13.5771, -0.865968, 2.25746, 0
13.9863, 3.47488, 3.28705, 0
12.5132, 0.375096, 1.96064, 0
13.9919, 0.714411, 1.02232, 0
13.3419, -0.0216307, 3.74539, 0
13.5817, -2.09635, 3.71233, 0
13.4733, 0.112261, 3.30998, 0
13.3049, -4.93363, 1.83305, 0
13.5028, 0.137706, 2.46201, 0
13.584, 0.151432, 1.81183, 0
13.2869, -4.91104, 1.62934, 0
13.5263, 0.14224, 2.24598, 0
13.896, -4.90348, 4.8898, 0
12.9936, 0.579944, 2.3956, 0
14.4483, 0.969572, 1.29765, 0
13.443, 0.151017, 3.98255, 0
13.8353, -4.8994, 4.58266, 0
12.9888, 0.620471, 2.05656, 0
13.4891, 0.160337, 3.54972, 0
13.6077, 3.79942, 3.8201, 0
14.6641, 4.58433, 2.71019, 0
13.3416, 1.06735, 1.54914, 0
13.7337, 0.799392, 3.05189, 0
13.3413, 0.947603, 2.16778, 0
13.6132, -2.22306, 2.86486, 0
14.1096, 1.15148, 1.82287, 0
13.346, 0.721447, 4.43606, 0
12.5803, 3.13882, 1.22393, 0
13.5591, -2.4573, 3.66038, 0
13.3454, 0.720552, 4.66197, 0
13.568, 0.196467, 2.05213, 0
13.5658, -1.68339, 2.8057, 0
13.6683, 0.792006, 3.70818, 0
13.3493, 1.08885, 2.24138, 0
13.4864, 0.348141, 2.28435, 0
13.0016, 0.895451, 1.15677, 0
13.4471, 0.664427, 2.56083, 0
13.3437, 0.70286, 2.11895, 0
13.3279, 0.685088, 3.60241, 0
13.5064, -0.213393, 2.02071, 0
13.5983, -2.43281, 2.73026, 0
13.9255, -4.90388, 1.19855, 0
13.3397, 1.05571, 1.84077, 0
13.6067, -1.58204, 2.98124, 0
13.6706, 0.704583, 4.87451, 0
13.6918, 0.675853, 1.60726, 0
13.3122, 0.901195, 2.99416, 0
13.6109, 3.55157, 3.53913, 0
13.8333, 4.36265, 3.84986, 0
13.3271, 0.901475, 1.90669, 0
13.3274, 0.88557, 4.68645, 0
13.5721, -2.06976, 2.65867, 0
14.1848, 1.17785, 1.54611, 0
13.3497, 0.722488, 4.21226, 0
13.5148, -0.225485, 2.6709, 0
13.5416, -2.53135, 3.36365, 0
13.4452, -4.9227, 3.67013, 0
13.2513, -0.530628, 3.90988, 0
13.4393, 0.723586, 4.43508, 0
13.7337, -0.305807, 2.85658, 0
13.9849, 0.6501, 3.67443, 0
13.4645, 0.81358, 2.04878, 0
12.8484, 0.760518, 2.48354, 0
13.2254, -0.503238, 4.56497, 0
14.2617, 1.20568, 1.26946, 0
13.4434, 0.72486, 3.97127, 0
13.5133, 0.721321, 2.23001, 0
13.6915, -2.38248, 2.97782, 0
13.5386, -4.92191, 1.26032, 0
14.1594, 0.680102, 3.0361, 0
13.4718, 0.814021, 1.61369, 0
12.9521, 0.883635, 2.80048, 0
13.4386, 0.724082, 4.20134, 0
12.7008, -2.83011, 2.16853, 0
14.0093, 0.660035, 3.34715, 0
13.4695, 0.813885, 1.83102, 0
13.3066, 0.412624, 3.66067, 0
13.4192, -0.711419, 1.96873, 0
13.439, 0.812038, 3.83748, 0
13.6789, 0.0240812, 2.43824, 0
13.424, 0.811135, 4.53543, 0
13.4242, 0.811146, 4.77444, 0
13.3518, 0.890276, 3.08758, 0
13.7045, 0.749255, 3.21971, 0
13.6945, 0.722176, 4.50317, 0
14.2115, 0.837896, 2.41917, 0
13.6605, 4.42776, 3.1108, 0
13.5081, -0.221375, 2.45375, 0
13.3453, 0.720557, 3.99744, 0
14.0209, 0.779694, 2.62718, 0
13.452, 1.1302, 1.18104, 0
13.3161, -0.0342694, 4.39752, 0
14.1178, 0.943563, 1.46213, 0
13.3838, -0.356497, 3.71384, 0
13.4351, 1.12878, 2.26719, 0
13.6728, 1.10087, 3.69199, 0
13.8521, 0.678373, 3.5019, 0
13.2911, 0.848124, 1.21682, 0
13.3372, 0.887122, 4.22054, 0
13.4014, 1.12595, 4.29904, 0
14.0497, 0.907652, 1.74527, 0
13.4109, 1.12675, 3.83596, 0
13.817, -4.85872, 1.50977, 0
13.2158, -0.508592, 4.78481, 0
13.6143, -1.53514, 3.22838, 0
14.068, 0.76576, 3.15202, 0
13.4426, 1.12941, 1.83045, 0
13.3954, 1.12544, 4.77227, 0
12.5767, -2.82826, 1.58186, 0
14.1606, 0.672449, 2.706, 0
13.4788, 0.814442, 1.18139, 0
13.4347, 0.81178, 4.06824, 0
13.4859, 0.717236, 3.56827, 0
13.7732, -0.323298, 2.20544, 0
13.6545, 0.684853, 1.90406, 0
13.2868, 0.850805, 3.32371, 0
13.6376, 3.65662, 3.77714, 0
13.6511, 4.35765, 4.05173, 0
13.4182, 1.12736, 3.38001, 0
14.0507, 0.757375, 3.4805, 0
13.4405, 1.12923, 2.0486, 0
13.4601, 0.813317, 2.48818, 0
13.5033, -2.1256, 2.44867, 0
13.427, 0.721864, 4.90496, 0
13.7316, 0.0443219, 2.00673, 0
13.4427, 0.812261, 3.60852, 0
13.5145, -4.88468, 1.64756, 0
13.4883, -4.90366, 4.58785, 0
13.3332, 0.9016, 1.47721, 0
13.3327, 0.886375, 4.45251, 0
13.6953, 0.710075, 4.28443, 0
14.2265, 0.842579, 2.07804, 0
13.5186, -4.91466, 2.65416, 0
13.087, 0.282386, 1.44638, 0
13.5228, -4.91618, 2.41958, 0
13.5238, -4.91654, 2.18559, 0
14.1188, 1.09762, 1.2003, 0
13.6275, -2.53326, 3.13255, 0
13.1553, 0.360708, 3.35543, 0
13.4989, -4.9075, 4.09395, 0
13.5314, -4.91933, 1.72148, 0
13.9834, 0.765142, 2.91192, 0
13.4306, 1.17608, 1.56723, 0
13.402, 1.126, 4.53566, 0
13.4115, 1.1563, 3.56121, 0
13.209, 0.234815, 4.03922, 0
13.4259, -0.722616, 2.40177, 0
12.9121, 0.769057, 3.85396, 0
13.5104, 0.720737, 2.4503, 0
13.0085, 0.84899, 3.45411, 0
13.535, 0.724612, 1.14171, 0
13.6649, 3.41642, 4.26606, 0
13.3393, 1.08035, 4.44054, 0
13.4741, 0.349605, 3.13835, 0
13.3382, 1.07867, 4.89456, 0
13.7184, -4.94148, 2.52194, 0
13.4963, 0.323822, 1.63886, 0
13.5302, 0.723933, 1.35813, 0
12.8209, 0.826629, 3.20471, 0
13.5219, 0.722637, 1.79266, 0
13.2614, -0.525488, 3.69365, 0
13.8668, 0.651451, 3.98252, 0
13.5733, 4.29672, 2.77975, 0
13.3347, -0.528506, 1.97372, 0
13.0049, 0.419986, 3.71799, 0
13.659, 1.09944, 2.49913, 0
13.3071, -0.543677, 2.61737, 0
13.6388, 4.20005, 3.79929, 0
13.3013, 0.389547, 2.39935, 0
13.5825, -2.57444, 3.27836, 0
13.3522, -0.562758, 1.54209, 0
13.1394, 0.322153, 3.03305, 0
14.1704, -4.8277, 1.02275, 0
13.3658, -0.717918, 4.14335, 0
14.0008, -4.9488, 1.27871, 0
13.3524, -0.705962, 3.70149, 0
13.3568, -0.711768, 3.92147, 0
13.4361, -0.728703, 2.61908, 0
13.1712, 0.339443, 2.09124, 0
13.6153, -2.55542, 3.09557, 0
13.5006, -4.90812, 3.84912, 0
13.6762, 0.097038, 4.62202, 0
13.6741, 0.0850226, 3.95951, 0
12.8369, 0.186796, 2.10446, 0
13.5618, -0.0792895, 3.72039, 0
13.6529, -0.282958, 4.37773, 0
13.685, -0.298407, 3.72325, 0
13.9733, 4.42099, 2.47732, 0
13.5952, 3.7702, 3.33716, 0
13.3396, 1.08195, 3.99242, 0
12.8123, 0.163425, 1.77129, 0
13.3667, -0.0206121, 3.93847, 0
12.9644, 0.616787, 3.00626, 0
13.4543, 0.429849, 4.43403, 0
13.0242, 0.64194, 2.71099, 0
13.4588, 0.368471, 4.21168, 0
13.595, 0.221687, 4.86956, 0
12.8091, 0.456401, 1.17308, 0
13.7993, 4.44201, 4.68906, 0
13.4805, 0.349173, 2.71153, 0
14.4617, 3.81389, 2.67144, 0
12.8798, 0.471244, 1.49145, 0
13.3364, -0.36648, 4.14635, 0
14.0129, 0.817824, 4.55933, 0
12.9466, 0.367354, 3.06736, 0
13.6088, 0.063623, 4.38807, 0
13.3244, -0.0300388, 4.17928, 0
13.4657, -0.22068, 4.86837, 0
13.4423, -0.211925, 4.41616, 0
13.4349, -0.207673, 4.19329, 0
13.6822, 4.00405, 3.67203, 0
13.6045, 1.05781, 3.04133, 0
13.6945, 3.39297, 3.11496, 0
13.6512, 1.1034, 2.71298, 0
14.4835, 4.28824, 2.64859, 0
13.0083, 0.850201, 1.45006, 0
12.9983, 0.859495, 4.52198, 0
13.3352, 0.887438, 3.9888, 0
13.6449, 3.47812, 3.16598, 0
13.6535, 4.41557, 3.66205, 0
13.3471, 0.8891, 3.53572, 0
13.6938, 0.705246, 2.21569, 0
13.6173, 3.49173, 3.07596, 0
13.6636, 4.37004, 3.33573, 0
13.6525, 3.98772, 3.0259, 0
13.5238, 1.10635, 2.58097, 0
13.7307, 0.0959919, 3.74761, 0
13.357, -4.89283, 2.88062, 0
13.712, 4.30204, 4.25598, 0
13.6365, 3.28893, 3.06785, 0
13.719, 4.33712, 3.30553, 0
13.2679, 1.06941, 1.20829, 0
13.273, 1.06697, 4.05617, 0
13.6686, 0.769625, 2.6544, 0
13.5997, 4.02024, 3.50084, 0
13.6413, -2.49409, 4.61564, 0
13.275, 1.06487, 3.39219, 0
13.6942, 0.78322, 1.83422, 0
13.6939, 0.791363, 4.85519, 0
13.6622, 0.785973, 3.17033, 0
13.4169, -0.705898, 1.75243, 0
13.3424, 1.08372, 3.5497, 0
13.337, 1.06001, 2.97756, 0
13.7162, 0.819203, 1.49419, 0
12.9727, 0.391465, 3.3942, 0
14.6107, 0.787237, 4.21381, 0
13.6566, 0.77307, 4.57679, 0
13.3418, 1.06928, 2.55647, 0
13.5855, 3.73432, 2.82382, 0
13.7735, 0.0546271, 1.78904, 0
13.6187, 4.38175, 3.12159, 0
13.6195, 4.44642, 3.51677, 0
13.348, 1.08799, 2.458, 0
13.679, 0.778091, 4.02925, 0
13.6907, 0.827866, 1.32306, 0
13.6618, 0.797756, 4.13067, 0
13.5952, -1.72273, 2.54412, 0
12.617, 0.0333061, 1.26152, 0
13.7302, 0.0194086, 1.57189, 0
13.5975, 4.42076, 2.7155, 0
14.0394, 4.43932, 2.15617, 0
12.731, 1.07022, 1.0045, 0
13.8018, 3.65753, 4.64283, 0
12.8491, 1.09515, 1.32565, 0
13.6427, 4.4075, 3.39066, 0
12.877, 0.972387, 1.65057, 0
12.988, 0.893641, 4.79617, 0
12.9782, 0.98497, 1.97573, 0
13.9723, 0.844549, 4.28454, 0
13.299, -0.0427862, 4.83695, 0
13.8298, 3.42765, 3.95157, 0
12.9745, 1.07365, 1.70366, 0
13.6607, 1.16242, 4.02658, 0
13.8334, 1.10824, 4.70751, 0
12.9723, 0.860436, 3.12833, 0
13.9959, 0.884559, 4.68373, 0
12.9782, -4.94885, 1.60024, 0
13.8009, 0.0397194, 1.13196, 0
13.966, 0.71328, 4.11452, 0
14.0338, 0.738738, 1.49036, 0
13.5064, 0.110071, 1.59527, 0
13.9895, 0.729275, 2.1534, 0
13.5041, 4.07004, 1.35314, 0
13.7867, -0.331734, 1.33375, 0
13.8657, 1.10043, 3.39685, 0
13.3159, 0.901155, 2.55587, 0
13.741, 3.40711, 4.3702, 0
13.7362, 4.20185, 3.63663, 0
14.3812, 0.266398, 1.85359, 0
12.9176, -4.94012, 1.27586, 0
14.4819, 0.899062, 4.89083, 0
14.3218, 0.883152, 4.54311, 0
14.1391, 0.859027, 3.84702, 0
13.6127, 4.34262, 2.90812, 0
13.605, 4.21061, 3.57218, 0
13.5727, 3.76909, 2.9629, 0
13.96, 1.25307, 4.86563, 0
14.0649, 2.85283, 1.16835, 0
13.0198, 1.05909, 1.60744, 0
12.6411, 0.462076, 2.60002, 0
13.3878, 4.41685, 1.29457, 0
13.4181, -2.46801, 1.67833, 0
13.398, -2.45805, 1.37621, 0
13.682, -2.55763, 4.90517, 0
13.6334, 4.25099, 4.08968, 0
13.6314, 3.43707, 4.05312, 0
13.4809, -4.88826, 4.76521, 0
14.0752, 0.735979, 4.72304, 0
13.9826, 0.738352, 4.38123, 0
13.632, -2.55516, 4.32821, 0
13.7834, -3.56841, 1.50075, 0
13.3368, 0.946816, 2.38479, 0
13.3496, -4.93972, 4.89794, 0
13.2953, 4.20225, 1.60696, 0
13.5461, -2.05098, 1.89853, 0
13.9586, -4.93338, 2.77194, 0
12.9843, -2.7477, 2.19984, 0
14.2661, 0.729807, 3.40477, 0
14.2014, 0.634049, 3.77736, 0
13.6717, 4.28407, 4.74979, 0
13.485, 3.68573, 1.18105, 0
12.6022, 0.984718, 1.09641, 0
13.4505, -2.33345, 1.04842, 0
13.5061, -0.205439, 1.58781, 0
13.4572, 4.55704, 1.02149, 0
13.8068, -1.56371, 3.67285, 0
14.3198, 0.636167, 4.90158, 0
12.9981, 0.851593, 4.18079, 0
14.4316, 0.426237, 4.42565, 0
14.332, 0.451898, 4.14098, 0
13.5911, -1.87766, 3.46302, 0
13.6505, -2.52637, 3.76025, 0
13.6628, -2.53436, 3.47578, 0
14.4931, 0.465767, 2.84334, 0
14.2235, 0.526978, 2.30093, 0
13.9683, -4.87701, 4.81904, 0
13.9726, -4.86061, 4.64577, 0
13.662, -4.94296, 3.8148, 0
13.5136, -4.78014, 3.29978, 0
13.999, -0.551272, 1.3509, 0
13.7569, -2.50483, 4.86484, 0
13.3616, -0.557768, 1.32623, 0
13.6033, -0.244658, 1.14707, 0
13.6577, -0.150055, 1.35117, 0
13.7329, -0.304072, 1.77309, 0
14.2416, 1.06751, 4.05913, 0
14.275, 0.76322, 3.7008, 0
14.522, 0.814195, 3.94584, 0
14.2829, 0.855415, 1.50301, 0
13.5165, -0.0861674, 4.80487, 0
-0.592344, 39.5421, 1.06933, 0
-2.40209, 37.8758, 2.15936, 0
0.486095, 39.0123, 1.40256, 0
-1.62137, 35.8148, 1.13475, 0
-3.53645, 37.2866, 1.36113, 0
-1.63069, 39.9422, 1.65012, 0
-3.8555, 37.4804, 1.16312, 0
-2.14124, 39.4006, 1.09228, 0
4.44602, 36.5337, 1.36071, 0
1.38477, 35.7964, 1.37235, 0
4.00598, 37.3551, 1.14429, 0
21.9149, 0.257169, 1.43265, 0
19.5425, 0.321774, 2.19849, 0
21.1154, -0.057683, 1.37993, 0
14.9087, 0.06703, 3.43442, 0
20.8554, -3.27521, 2.65123, 0
20.0023, 4.65274, 4.58061, 0
21.6515, -3.04275, 2.77493, 0
17.3961, -0.912451, 1.90757, 0
22.2615, 1.866, 2.5697, 0
19.8349, -0.447371, 1.29114, 0
22.5355, -2.7819, 2.9119, 0
23.5232, -2.4876, 3.0645, 0
17.6459, -1.34477, 1.14696, 0
-31.9838, 37.7514, 5.60858, 0
-28.8413, 35.7228, 5.04602, 0
-25.5138, 39.3898, 4.96631, 0
-25.0849, 35.3705, 5.88235, 0
13.933, 6.2459, 1.18727, 0
13.8355, 6.36602, 2.33266, 0
13.8365, 6.44969, 3.09368, 0
13.8333, 10.0253, 3.15104, 0
13.9842, 12.3536, 1.02213, 0
13.6675, 10.3394, 2.59975, 0
13.7245, 9.5904, 3.27088, 0
13.6498, 9.96501, 3.96472, 0
13.6698, 6.628, 1.6437, 0
13.0451, 13.0697, 4.90839, 0
14.7073, 6.40964, 1.19873, 0
14.7019, 12.4507, 1.32195, 0
14.2832, 12.7212, 2.0558, 0
14.3596, 12.5995, 1.64834, 0
14.4763, 6.41054, 3.903, 0
14.576, 12.4291, 4.69368, 0
14.4891, 6.41817, 3.55844, 0
14.8065, 12.3603, 3.56263, 0
14.8424, 12.4155, 2.70622, 0
14.3256, 6.36648, 4.64635, 0
14.6147, 12.4109, 4.0221, 0
14.7572, 12.5258, 2.75835, 0
14.6354, 12.4646, 3.16561, 0
14.498, 12.5777, 3.5648, 0
14.3637, 12.6997, 3.96727, 0
13.8451, 11.9707, 2.18329, 0
14.2536, 6.37851, 4.25639, 0
14.0782, 6.4323, 4.90668, 0
14.4529, 12.429, 3.74864, 0
13.5604, 6.71813, 3.08275, 0
13.6123, 12.7279, 4.26892, 0
13.8257, 12.7205, 3.45614, 0
13.3454, 11.6012, 2.18182, 0
13.3895, 10.8456, 1.88938, 0
13.971, 12.7118, 2.18485, 0
13.4471, 14.4984, 1.77381, 0
14.0628, 6.51249, 3.10505, 0
13.9796, 12.6826, 4.12816, 0
14.0251, 12.6513, 3.70215, 0
14.0772, 12.6332, 3.27675, 0
14.1143, 12.5835, 2.85173, 0
13.831, 12.6966, 3.18972, 0
14.4795, 12.5919, 4.71826, 0
14.4168, 12.7324, 4.21623, 0
14.0026, 12.7019, 4.91889, 0
14.1341, 12.6756, 4.50754, 0
14.6967, 7.76763, 4.94151, 0
14.7012, 12.8214, 4.76238, 0
14.3347, 6.65765, 4.84145, 0
14.2884, 6.7955, 4.01252, 0
14.3925, 12.7208, 4.63061, 0
14.5693, 12.7209, 4.20017, 0
14.0542, 13.0757, 3.36883, 0
13.8608, 13.3518, 2.78241, 0
13.7177, 9.51795, 2.28874, 0
13.6999, 10.3698, 2.62554, 0
13.8485, 7.14556, 1.02419, 0
13.8766, 9.43518, 4.48034, 0
14.0302, 9.63422, 4.27337, 0
13.9671, 9.57427, 4.67028, 0
13.5464, 9.75985, 1.11792, 0
13.2756, 9.98708, 1.09308, 0
14.7219, 12.7619, 1.79633, 0
12.6707, 6.98048, 1.16199, 0
14.6806, 12.9568, 4.0974, 0
13.8633, 6.29711, 1.57164, 0
14.3955, 13.1335, 4.23326, 0
14.0958, 6.56013, 2.75314, 0
12.7106, 13.0589, 1.14554, 0
13.9954, 6.61092, 2.49451, 0
13.0187, 6.95437, 4.67048, 0
13.9513, 12.4355, 1.89029, 0
12.7019, 6.69614, 2.4354, 0
13.1819, 6.12197, 2.14123, 0
14.7236, 6.33556, 4.3339, 0
13.0872, 12.8704, 2.60916, 0
12.9408, 12.6189, 1.72543, 0
13.5925, 12.983, 2.92293, 0
12.7916, 6.1979, 1.57147, 0
14.1166, 7.03692, 1.81383, 0
13.155, 6.43432, 3.49769, 0
12.4988, 6.33984, 1.2468, 0
13.2107, 6.23029, 2.92362, 0
12.8731, 6.29714, 1.77454, 0
14.2044, 7.09119, 1.46035, 0
12.912, 6.31601, 2.16765, 0
13.1726, 6.42886, 2.75052, 0
13.1597, 6.38946, 2.36197, 0
13.1508, 6.35428, 1.97094, 0
12.8369, 6.47075, 1.58825, 0
12.9382, 6.659, 2.73684, 0
12.8692, 6.53184, 1.97194, 0
12.8056, 6.41071, 1.20352, 0
14.6143, 12.7166, 4.76527, 0
13.2104, 9.18242, 3.5906, 0
13.1834, 10.0035, 3.05714, 0
13.2215, 10.0772, 3.48093, 0
13.0502, 12.7957, 3.62852, 0
13.2518, 6.47223, 1.96785, 0
13.1486, 6.42586, 1.5867, 0
13.1677, 6.39347, 1.19374, 0
12.9369, 6.6191, 1.16312, 0
14.5532, 7.06429, 1.99702, 0
13.3128, 10.1141, 3.01392, 0
13.497, 12.7484, 3.56604, 0
13.4233, 12.6716, 2.63719, 0
13.3741, 12.6706, 3.10655, 0
13.269, 12.9023, 4.47946, 0
13.2899, 13.005, 4.93797, 0
14.6672, 6.26593, 3.69437, 0
13.0556, 12.7512, 2.15791, 0
12.9835, 12.6738, 1.22988, 0
13.5554, 10.0209, 2.49798, 0
12.7753, 6.11478, 1.014, 0
13.5136, 10.4424, 2.47463, 0
13.6539, 9.57035, 3.78031, 0
14.0346, 10.4307, 4.20209, 0
14.2166, 6.94657, 1.64602, 0
13.1773, 13.8317, 1.54325, 0
13.1456, 13.7502, 4.61302, 0
12.6556, 12.8733, 1.81859, 0
13.8799, 6.60361, 2.62192, 0
13.3278, 7.02717, 1.06538, 0
12.9281, 6.6596, 3.55906, 0
14.3052, 6.93866, 2.37562, 0
12.5631, 6.42587, 1.63281, 0
12.9898, 6.4761, 2.933, 0
13.9878, 9.55582, 3.64571, 0
13.4078, 12.6937, 4.51876, 0
14.5079, 13.0704, 1.78573, 0
12.9017, 6.59318, 2.35508, 0
14.2917, 6.96884, 1.2951, 0
13.9921, 6.88067, 2.6979, 0
13.0101, 6.68735, 1.94062, 0
13.1819, 6.61138, 3.5272, 0
