X,Y,Z,I,
-7.31709, -11.7459, 2.94425, 15
-8.3767, -11.5321, 3.33657, 7
-7.70525, -11.6699, 4.94052, 11
-6.09911, -11.6451, 2.60751, 10
-6.57269, -11.5826, 3.87209, 7
-12.9954, -11.5633, 3.07834, 10
-5.9437, -11.5838, 3.88884, 6
-7.69203, -11.605, 3.77844, 28
-5.69478, -11.6549, 4.1613, 3
-8.45945, -11.5019, 2.34605, 7
-14.3542, -11.0424, 4.79647, 7
-13.0315, -10.9487, 3.52352, 13
-13.219, -11.2749, 3.22906, 25
-10.9588, -11.3383, 3.48288, 100
-7.46069, -11.6043, 4.0928, 12
-10.1748, -11.3843, 2.37668, 4
-8.18862, -11.5007, 2.79242, 3
-11.9173, -11.2908, 2.6753, 8
-9.96398, -11.3614, 2.89623, 151
-7.34433, -11.7919, 4.71434, 2
-7.68264, -11.3933, 3.23292, 10
-12.7934, -33.8017, 2.51633, 24
-5.3256, -33.0467, 2.02609, 21
-5.03029, -33.2055, 3.55844, 25
-11.8401, -31.7763, 4.93449, 19
-14.2443, -33.7221, 3.55645, 22
-13.0592, -33.5612, 3.48958, 22
-9.74239, -34.1806, 3.40542, 23
-5.1911, -33.0503, 2.29507, 24
-11.6852, -32.3883, 2.60762, 15
-13.8987, -33.5303, 2.39734, 17
-13.1427, -33.9799, 2.25701, 46
-13.2965, -33.9265, 3.56543, 44
-13.3572, -34.0312, 3.19476, 100
-5.05116, -33.0655, 2.8189, 62
-8.15843, -34.1839, 3.20677, 43
-11.6546, -32.1057, 2.38204, 45
-12.3667, -31.6175, 2.79656, 14
-5.75704, -30.4179, 2.69492, 100
-13.556, -33.5564, 2.13845, 58
-9.52013, -34.186, 3.05408, 46
-14.0075, -34.2272, 2.52053, 17
-13.3657, -34.1061, 4.47043, 29
-8.10334, -34.4523, 2.13531, 42
-8.30406, -34.3789, 3.38272, 45
-8.836, -34.4028, 4.06405, 41
-9.32514, -34.2367, 2.77736, 45
-12.5604, -31.6098, 2.07333, 55
-13.4016, -33.8268, 3.13714, 30
-11.705, -32.9, 3.88355, 15
-8.67132, -34.1293, 3.31513, 45
-13.4936, -34.0073, 3.77147, 14
-8.51213, -34.2411, 3.20546, 45
-5.12796, -33.3429, 3.244, 31
-11.8876, -32.2615, 2.69068, 12
-13.5348, -33.9686, 4.43396, 28
-8.21261, -34.2887, 2.07427, 42
-13.8285, -33.8233, 2.3337, 16
-13.3209, -34.1094, 3.88323, 19
-8.9363, -34.2661, 4.54107, 46
-11.3605, -32.2538, 2.21455, 41
-11.9344, -32.0392, 2.9875, 41
-12.1538, -32.0084, 3.33356, 55
-13.4165, -34.0358, 3.66374, 14
-13.996, -33.7238, 2.04891, 59
-9.47223, -33.9154, 2.01153, 17
-9.38734, -34.1527, 3.14401, 57
-12.1007, -32.0793, 3.28549, 42
-13.0834, -34.0478, 3.18743, 50
-8.58721, -34.166, 3.54919, 50
-5.73796, -30.4698, 2.16101, 14
-5.02656, -33.1175, 4.64491, 21
-12.1607, -32.0425, 3.13378, 73
-5.29002, -33.2349, 2.15335, 31
-8.26958, -34.4841, 2.75198, 41
-12.4712, -31.5822, 2.42863, 32
-9.34794, -33.9879, 2.55926, 71
-12.1395, -31.5927, 2.11087, 78
-12.2994, -31.8767, 2.97709, 99
-12.5125, -31.9365, 2.73724, 27
-11.6324, -32.3666, 2.42896, 41
-5.08711, -33.017, 2.95191, 53
-13.8418, -33.6595, 3.71155, 50
-9.18495, -34.3144, 3.52987, 45
-9.356, -34.3058, 2.33407, 25
-13.2798, -33.8885, 3.06289, 24
-9.51742, -33.7063, 2.05493, 34
-13.7838, -33.7998, 2.94722, 59
-9.02033, -34.369, 3.60405, 46
-12.7791, -31.6447, 2.27183, 55
-11.9292, -32.1381, 2.72939, 45
-13.7942, -34.1417, 3.56098, 17
-8.26438, -33.7457, 2.22739, 24
-9.26845, -34.2292, 3.22347, 46
-12.391, -31.7252, 2.63676, 15
-9.59598, -33.9733, 2.58, 43
-8.89725, -34.2938, 4.12351, 23
-14.0149, -33.9221, 2.3815, 45
-13.503, -34.0249, 4.2179, 14
-8.25733, -34.2948, 2.20525, 35
-12.8505, -33.8626, 2.20706, 22
-8.68677, -33.8835, 2.72016, 40
-12.44, -31.6456, 2.34473, 64
-11.4982, -32.1549, 2.35391, 16
-9.54428, -34.2077, 2.80967, 22
-8.59834, -34.2103, 3.07032, 49
-9.06574, -34.1423, 2.59653, 17
-9.536, -34.2064, 2.38047, 43
-8.87804, -34.3695, 3.84171, 14
-8.94933, -34.0989, 3.03774, 15
-12.619, -31.9201, 2.1029, 16
-5.0346, -33.403, 2.97923, 16
-9.35794, -33.9209, 2.29743, 49
-13.0037, -34.1644, 3.42848, 24
-8.72871, -34.2659, 3.8283, 25
-9.34176, -34.3648, 2.67664, 16
-5.04771, -33.4724, 3.58031, 31
-9.44817, -34.4033, 2.45179, 16
-5.42056, -33.1841, 2.31983, 15
-13.6077, -33.9214, 2.50943, 63
-13.8168, -33.8063, 3.19144, 100
-9.13187, -33.6418, 2.32399, 14
-8.46192, -33.5496, 3.30442, 23
11.3388, -12.3802, 5.64341, 16
10.9261, -12.678, 5.26297, 16
10.9062, -12.5035, 5.94927, 12
5.16422, -12.1358, 5.19096, 11
5.98473, -12.1453, 5.96754, 4
11.0184, -12.6513, 5.99414, 27
10.9798, -12.6447, 5.02383, 24
11.0491, -12.7916, 5.14343, 17
4.98511, -12.4003, 5.63227, 35
4.95587, -12.4296, 5.33493, 33
10.9755, -12.6133, 5.72925, 33
10.9492, -12.644, 5.19536, 12
11.2604, -12.3992, 5.26479, 12
5.28325, -12.2028, 5.64774, 26
11.1872, -12.3661, 5.82234, 19
5.2899, -12.2151, 5.15112, 31
11.151, -12.3571, 5.01062, 12
4.99025, -12.5234, 5.64594, 3
5.2253, -12.6444, 5.43406, 9
11.3855, -12.5612, 5.73967, 12
5.17686, -12.1913, 5.16431, 15
5.28888, -12.237, 5.35963, 24
11.2325, -12.368, 5.99178, 18
4.95369, -12.4921, 4.96299, 11
12.8649, -12.5447, 5.02629, 9
11.1727, -12.3788, 5.47012, 16
11.1553, -12.8056, 5.82, 15
9.08038, -12.2411, 5.96624, 9
11.0184, -12.6839, 5.35909, 15
-25.0525, -11.583, 2.9371, 17
-28.9454, -10.1742, 2.40209, 10
-26.9563, -7.93779, 2.05588, 10
-27.7177, -10.0756, 3.06019, 12
-25.1265, -8.11189, 2.52576, 11
-24.7752, -7.82524, 2.45216, 22
-27.8904, -8.03265, 2.33416, 10
-28.0795, -8.79499, 4.02024, 8
-27.2437, -8.16454, 4.59247, 7
-26.0387, -6.60046, 3.41924, 7
-28.2892, -10.1032, 2.48714, 32
-26.5617, -8.88375, 4.55261, 31
-27.3273, -10.6776, 3.23197, 10
-26.4013, -9.32286, 2.19382, 30
-25.6374, -8.70389, 2.06088, 19
-27.6217, -7.23493, 2.31672, 8
-27.8009, -8.32173, 3.21454, 7
-29.5279, -10.8503, 4.62149, 8
-25.0823, -7.91742, 2.66602, 9
-25.5314, -8.42491, 2.20991, 24
-25.4439, -8.88071, 4.54648, 9
-27.3241, -9.30619, 2.43715, 7
-25.4258, -7.817, 2.89314, 30
-27.0828, -10.478, 3.39549, 32
-26.3436, -9.37165, 2.39387, 31
-25.7494, -8.72957, 2.29021, 22
-26.6993, -11.0917, 3.46108, 33
-29.7248, -4.95782, 2.81783, 8
-30.4089, -6.28938, 4.60594, 31
-28.2423, -4.97542, 4.12507, 22
-28.5682, -6.34756, 4.37589, 15
-27.4646, -5.76154, 4.14897, 22
-27.3266, -5.81418, 4.14088, 7
-26.6401, -5.32255, 3.98086, 35
-26.5106, -5.29262, 3.27657, 19
-27.0216, -5.98345, 4.13243, 29
-27.678, -6.91924, 2.85638, 8
-29.8505, -9.77991, 4.19165, 8
-29.7093, -10.0134, 4.21056, 8
-29.6747, -10.3857, 4.25856, 8
-28.0391, -8.56457, 3.86332, 7
-25.8107, -6.76612, 4.13218, 29
-25.9426, -7.30278, 4.23843, 30
-25.9652, -7.58118, 4.28912, 22
-27.5321, -10.0298, 3.19572, 8
-24.8263, -6.85398, 4.75398, 8
-26.9765, -10.643, 4.07658, 24
-28.938, -5.00305, 4.05034, 7
-28.0154, -8.57755, 4.40832, 31
-27.2345, -5.11401, 3.20606, 15
-28.6371, -9.67367, 3.76175, 8
-31.1075, -7.48803, 2.8816, 10
-27.0443, -5.17063, 3.88253, 20
-26.4911, -6.93667, 4.06281, 14
-29.466, -6.47325, 3.49899, 8
-28.105, -5.21899, 4.70954, 22
-28.8503, -6.03738, 3.41209, 8
-26.0412, -7.21856, 4.79263, 30
-27.0469, -5.95887, 4.69579, 36
-27.7756, -6.87921, 3.41819, 16
-26.6066, -5.56925, 3.89313, 6
-28.6891, -6.28436, 3.42358, 8
-27.1695, -6.48634, 3.33833, 7
-27.7899, -7.35377, 3.46734, 8
-28.6222, -6.38124, 4.94389, 22
-28.0782, -7.93772, 3.54586, 8
-29.7733, -10.1561, 4.76569, 8
-25.6551, -7.90882, 4.1329, 7
-27.9533, -8.3951, 3.58545, 8
-25.0335, -7.06092, 4.67068, 29
-26.651, -9.80615, 2.06731, 41
-24.7867, -7.05152, 4.64846, 7
-29.0108, -5.05421, 4.80121, 7
-26.4297, -9.84396, 2.86094, 31
-25.3561, -8.97467, 2.75653, 9
-31.1726, -5.86436, 3.91651, 10
-30.3333, -7.48553, 4.05821, 10
-28.8148, -6.84654, 4.62669, 10
-27.4685, -6.78678, 3.7306, 9
-30.2846, -11.4057, 2.73427, 13
-27.4196, -8.92185, 4.05535, 41
-27.4786, -9.82352, 4.17514, 32
-26.4584, -8.91835, 3.18329, 25
-25.3959, -7.78071, 4.44832, 9
-26.6283, -9.75292, 2.4777, 47
-26.1557, -9.65565, 4.83212, 41
-31.3572, -5.45228, 2.76302, 8
-28.9907, -5.28124, 3.96259, 22
-29.3859, -5.75804, 3.29561, 22
-24.7648, -7.54591, 2.5876, 9
-29.0317, -6.1408, 3.26993, 7
-27.9465, -5.4281, 3.79482, 30
-27.7804, -5.64665, 3.04957, 7
-27.5302, -5.5034, 3.73197, 22
-28.3892, -6.72661, 4.79708, 19
-27.4483, -5.6074, 3.72891, 22
-29.6204, -10.1774, 4.22504, 8
-26.8657, -5.0963, 2.18006, 7
-28.2711, -7.50264, 4.06716, 31
-27.0647, -6.00523, 2.97593, 7
-26.333, -5.43402, 2.82745, 14
-27.4217, -7.53794, 3.93496, 15
-25.8051, -6.19714, 2.87872, 21
-25.4904, -7.28764, 2.17591, 7
-25.4971, -7.55702, 2.18872, 7
-26.112, -9.29626, 4.77531, 48
-24.8769, -7.25004, 2.09173, 7
-26.2368, -9.58276, 3.19065, 7
-26.1843, -9.61192, 2.37457, 33
-27.7865, -7.28214, 2.9031, 8
-31.5262, -6.66968, 4.5326, 30
-30.9784, -6.1964, 3.5691, 17
-29.6158, -5.98719, 4.19719, 9
-25.1365, -7.89329, 3.53384, 29
-29.439, -6.15325, 4.20265, 38
-28.4398, -6.35701, 4.10946, 19
-28.8495, -7.93092, 4.40407, 19
-27.3908, -6.2927, 3.22611, 14
-28.4724, -8.37674, 3.60286, 17
-28.1093, -10.0237, 2.59815, 25
-26.6401, -6.68787, 3.91564, 27
-26.537, -6.67078, 3.89858, 27
-26.2258, -6.97243, 3.16976, 14
-25.5839, -6.78707, 4.4957, 30
-26.28, -8.10289, 3.30301, 15
-27.081, -9.42783, 3.55252, 51
-26.3512, -9.11897, 4.21645, 9
-26.2083, -9.21769, 2.62768, 16
-29.8665, -9.74039, 4.71975, 8
-29.0514, -6.33497, 2.66318, 11
-28.3141, -7.18424, 4.77947, 16
-29.7281, -4.98616, 3.38604, 8
-31.2932, -8.30813, 2.14867, 14
-26.7488, -5.96583, 4.21056, 14
-28.2217, -8.56906, 4.5491, 17
-26.5592, -6.90364, 3.99284, 15
-26.9578, -6.6653, 2.58883, 25
-26.5446, -6.41352, 2.46488, 6
-28.2411, -7.81922, 2.03466, 12
-25.2775, -8.53313, 4.51153, 18
-27.0189, -8.47278, 3.9905, 16
-26.1165, -9.91746, 4.05814, 31
-26.3074, -9.54391, 3.47062, 16
-25.7859, -7.07843, 3.59987, 14
-27.9311, -11.3926, 2.99549, 19
-25.7884, -6.37351, 2.15274, 23
-24.8077, -9.10243, 4.51577, 20
-25.6941, -6.46476, 2.09388, 17
-27.0137, -11.6248, 3.49751, 19
-26.4335, -8.00588, 2.09472, 20
-25.9997, -5.27053, 4.5451, 11
-26.1801, -5.72297, 4.43208, 18
-25.8312, -5.48497, 4.2162, 11
-27.0855, -5.2003, 3.46685, 35
-26.1943, -5.27696, 3.62812, 10
-26.0959, -6.03434, 4.1251, 18
-27.7667, -5.32762, 2.88719, 22
-25.9929, -6.84428, 4.65006, 15
-25.9297, -5.13085, 3.45746, 10
-28.6018, -6.99804, 3.61429, 12
-26.7155, -6.07614, 3.59086, 10
-27.4296, -8.00221, 4.21484, 7
-27.0159, -5.17483, 2.28957, 5
-27.7287, -8.47827, 4.32838, 17
-26.3846, -6.24977, 3.10954, 10
-26.5969, -8.44868, 4.26795, 16
-25.7059, -6.47119, 3.38052, 24
-25.5379, -5.52239, 2.74791, 10
-25.0471, -5.90508, 3.04616, 11
-25.5556, -5.66631, 2.65729, 10
-26.4104, -5.83966, 2.28682, 35
-25.2063, -5.40012, 2.48127, 10
-25.6737, -6.04651, 2.49347, 31
-25.9106, -7.3985, 2.93338, 6
-25.8315, -9.52494, 3.96081, 16
-27.5876, -9.95864, 2.95793, 24
-26.2523, -9.48799, 3.12193, 17
-26.7834, -9.11808, 2.65386, 22
-27.627, -9.11873, 2.24381, 12
-25.9796, -10.3119, 3.61559, 17
-31.8814, -14.2321, 2.94409, 16
-26.0796, -8.59717, 2.22186, 28
-25.6345, -9.58123, 2.2893, 16
-26.9087, -6.30703, 2.63748, 6
-25.2923, -7.20987, 4.71989, 22
-27.1649, -5.20899, 4.6618, 11
-26.3464, -7.44617, 4.42417, 15
-27.1847, -5.19566, 4.53313, 22
-27.0187, -7.11921, 4.52556, 19
-27.1046, -5.07449, 4.37086, 33
-27.655, -7.80146, 4.60606, 15
-25.1816, -9.47987, 3.82241, 40
-24.8495, -10.383, 3.71985, 11
-28.9724, -8.1124, 4.59125, 12
-24.8911, -10.3425, 3.48784, 11
-27.7946, -7.86344, 4.10488, 7
-28.1513, -9.56527, 4.3499, 33
-27.5362, -6.31962, 3.65337, 10
-28.4941, -6.264, 3.7634, 12
-26.3964, -7.52531, 2.1328, 11
-27.4427, -8.31087, 3.11312, 16
-28.0531, -7.84717, 3.20041, 21
-28.1752, -7.9392, 3.07418, 7
-26.4801, -5.31165, 3.90035, 31
-27.7831, -8.57376, 2.72833, 32
-28.2901, -8.52107, 4.41382, 15
-25.1379, -10.4411, 3.78054, 7
-25.5403, -8.76478, 4.57613, 38
-25.4799, -9.3252, 3.98771, 8
-25.6829, -9.38612, 3.91361, 32
-25.728, -7.97194, 4.94021, 9
-25.639, -9.17607, 2.9177, 22
-25.8282, -9.10991, 2.78405, 22
-26.6069, -6.75764, 4.88171, 18
-26.2614, -9.2551, 2.61741, 7
-25.1344, -7.0394, 3.00802, 7
-26.9355, -7.18511, 4.81172, 8
-26.8918, -6.94347, 4.68205, 8
-26.8015, -6.65, 3.66649, 9
-27.3823, -6.31844, 4.39221, 9
-28.7833, -9.50219, 3.37036, 10
-30.5682, -9.73901, 4.77131, 9
-27.5794, -5.97186, 4.6625, 22
-28.3784, -8.61813, 3.09038, 30
-26.9708, -6.38988, 3.43704, 9
-28.7995, -8.16999, 3.6098, 10
-29.1978, -7.90086, 4.24966, 8
-28.8193, -6.76216, 4.66225, 11
-29.0865, -8.17845, 3.48055, 10
-29.0156, -6.77238, 4.58811, 11
-28.9145, -7.70724, 3.2892, 10
-27.6569, -4.97325, 3.98683, 21
-28.6598, -7.63903, 2.41992, 10
-27.847, -4.9904, 3.92037, 10
-28.7603, -5.20681, 4.58416, 10
-28.0006, -6.23184, 2.86608, 9
-28.4041, -5.93375, 3.39839, 8
-29.1395, -6.4591, 3.39696, 8
-28.3954, -6.27784, 2.70907, 9
-27.6745, -8.90586, 3.62236, 8
-25.4376, -7.9514, 2.56664, 11
-29.8288, -6.65237, 3.21448, 8
-31.3692, -5.35373, 4.70218, 9
-30.1395, -5.97893, 2.67422, 8
-30.5926, -5.41101, 3.08431, 11
-31.373, -5.30169, 3.68005, 30
-30.8445, -10.7295, 2.31481, 9
-25.3791, -8.80208, 3.03545, 15
-27.306, -9.90999, 4.29796, 42
-27.2572, -6.06783, 2.0395, 10
-29.1764, -5.71909, 2.93314, 8
-26.7405, -8.77932, 4.69988, 29
-31.569, -6.28254, 3.24451, 12
-26.6527, -9.5753, 2.43269, 31
-26.1257, -7.93599, 3.11175, 16
-27.8362, -7.38569, 2.23988, 11
-26.3383, -7.40138, 3.55521, 22
-27.1831, -9.18147, 4.3515, 9
-26.9062, -5.56834, 3.04471, 10
-28.5285, -7.19189, 4.0859, 5
-28.8784, -6.91199, 3.45518, 12
-27.7112, -6.08858, 3.96902, 5
-27.9168, -5.8881, 3.32515, 35
-28.9752, -6.54636, 3.55804, 36
-29.522, -6.33286, 2.98084, 11
-30.9109, -6.29628, 2.58284, 7
-27.7595, -8.18016, 3.10609, 10
-31.2531, -5.95786, 3.60778, 12
-30.8048, -12.5666, 4.06036, 16
-25.0699, -10.7799, 4.70902, 31
-26.1955, -9.92303, 3.68954, 55
-29.0541, -7.86621, 4.85262, 16
-26.8724, -9.1881, 2.67627, 18
-27.4615, -8.71701, 4.33116, 8
-25.4673, -7.91322, 2.67149, 11
-27.6453, -6.52846, 4.82012, 13
-28.029, -10.0067, 4.57474, 46
-25.502, -11.0426, 2.26902, 42
-29.6472, -4.97803, 4.7963, 30
-27.5841, -5.52444, 4.31541, 38
-27.4033, -6.44699, 2.69802, 13
-26.8597, -9.60578, 3.70503, 38
-27.2491, -13.6719, 3.17472, 21
-27.5309, -12.83, 4.73695, 10
-24.7992, -9.14062, 3.3898, 17
-27.7504, -9.11372, 4.24963, 30
-27.8041, -8.41239, 4.07496, 9
-27.4213, -7.92702, 4.80047, 28
-26.3247, -7.33806, 2.92134, 22
-26.7043, -6.17401, 4.38046, 13
-29.1164, -7.99443, 2.11753, 21
-27.6826, -6.52163, 4.63664, 24
-25.4076, -6.97185, 4.04697, 13
-29.4593, -7.39665, 4.85954, 14
-24.7703, -8.91731, 2.19233, 18
-25.2042, -8.02574, 3.58549, 13
-28.1152, -6.61899, 4.51681, 9
-25.3627, -11.3309, 2.67562, 19
-27.6912, -5.24646, 4.14829, 32
-24.9691, -9.88868, 2.41568, 20
-26.9077, -9.55204, 2.93947, 21
-27.2383, -8.55163, 4.51506, 11
-28.9069, -10.1773, 2.13368, 20
-26.9718, -9.46338, 4.11169, 45
-27.2853, -7.99698, 2.01784, 19
-29.6175, -5.85785, 3.66164, 7
-25.6138, -7.56412, 3.13129, 11
-27.2098, -6.0167, 4.37649, 13
-30.3863, -5.88632, 4.04395, 30
-25.9877, -6.65665, 2.72993, 21
-27.0998, -6.23156, 2.22439, 30
-29.216, -5.93345, 2.60454, 24
-25.4654, -11.6564, 3.3375, 19
-29.4377, -8.00908, 3.45258, 16
-25.06, -9.49044, 3.1379, 11
-25.3277, -8.13461, 2.71627, 56
-29.2893, -6.80506, 2.62702, 25
-27.5148, -5.89984, 4.55199, 23
-24.9188, -12.6038, 3.42361, 22
-27.995, -5.66417, 4.68696, 13
-25.0498, -7.76482, 3.95573, 27
-25.9174, -7.01871, 2.85047, 13
-25.1974, -9.47838, 2.59949, 19
-27.4897, -8.36286, 4.67164, 30
-29.1276, -10.0074, 2.37941, 9
-25.0754, -9.3463, 3.46157, 26
-30.5166, -7.16103, 3.04015, 12
-26.3801, -8.84066, 2.52807, 20
-27.1242, -5.07833, 4.31235, 22
-28.586, -8.44886, 3.03044, 20
-25.0858, -8.18506, 3.33917, 8
-28.531, -8.60679, 4.59024, 16
-29.5658, -6.27985, 3.91445, 30
-25.3621, -7.81879, 3.30939, 17
-28.8266, -6.37139, 4.32243, 40
-25.3374, -9.53278, 4.71148, 9
-28.1804, -6.24443, 2.06642, 8
-28.6846, -5.03584, 3.15749, 10
-26.7552, -5.44806, 2.80322, 42
-27.8145, -6.22201, 4.75971, 30
-26.76, -10.7755, 2.92202, 41
-25.7624, -10.1378, 3.32789, 57
-27.9139, -9.97561, 3.83544, 58
-27.105, -7.96523, 4.8987, 23
-26.8107, -9.26904, 2.78724, 45
-27.0843, -9.11857, 4.68139, 15
-28.1292, -8.46422, 3.35161, 86
-27.5104, -8.57576, 4.7151, 100
-29.9387, -5.31453, 4.21532, 10
-25.9216, -6.91046, 3.62528, 16
-28.7095, -5.6371, 4.47842, 30
-25.1739, -11.5748, 4.68058, 25
-25.6205, -12.4448, 2.0059, 30
-26.3042, -6.99639, 4.78207, 22
-29.351, -13.5013, 2.31455, 21
-25.9306, -11.9142, 2.08896, 21
-27.9212, -12.3872, 3.15594, 11
-25.5749, -11.0008, 2.98112, 19
-25.7182, -5.4492, 3.79728, 13
-27.3844, -8.65285, 2.61461, 30
-24.7974, -8.35357, 2.80424, 9
-27.0364, -8.23661, 3.16996, 8
-27.2913, -8.10421, 4.82189, 28
-26.4535, -7.61319, 2.84357, 9
-26.2512, -9.92656, 3.55231, 38
-26.0838, -10.928, 2.14344, 10
-28.1887, -5.1577, 3.81815, 15
-25.8224, -7.2326, 2.4276, 16
-29.8856, -5.55676, 3.00555, 40
-31.7624, -5.48538, 4.66159, 9
-24.7969, -11.6708, 2.26482, 11
-24.7955, -10.5145, 2.88486, 27
-25.657, -10.4824, 3.87144, 29
-25.3662, -11.2968, 2.50081, 71
-26.0218, -9.9201, 3.8684, 15
-25.7312, -10.7105, 2.27815, 42
-29.8825, -10.1456, 3.56456, 18
-27.526, -9.05926, 2.3123, 75
-25.3218, -12.6829, 2.18452, 18
-26.3607, -7.08561, 3.74463, 14
-28.0358, -7.58296, 4.94563, 15
-28.5914, -5.49872, 3.99268, 37
-26.1045, -8.30555, 3.01164, 30
-28.3316, -6.31448, 2.28507, 9
-31.8513, -5.06443, 3.10219, 24
-29.2667, -5.03536, 3.51238, 24
-24.7604, -11.1275, 2.35097, 21
-25.3347, -10.2307, 4.01213, 34
-30.4688, -7.18499, 2.81015, 16
-28.0271, -5.23649, 3.26513, 18
-30.7897, -7.00782, 2.11639, 30
-26.8654, -6.6622, 2.25204, 9
-24.8891, -8.86708, 2.3462, 30
-27.0081, -8.71927, 3.0134, 14
-26.9569, -8.38208, 2.91013, 28
-24.9424, -8.72282, 2.39571, 20
-27.2864, -8.02098, 3.40076, 22
-25.3055, -8.26432, 2.57514, 45
-26.4975, -7.17835, 3.31598, 27
-31.8871, -5.32803, 3.14205, 41
-27.6112, -6.7869, 2.39982, 22
-27.7512, -6.13901, 3.95108, 29
-31.892, -6.36653, 3.56993, 18
-26.9855, -5.45232, 3.30954, 22
-26.2835, -9.99682, 2.21338, 31
-24.8582, -6.5201, 3.44897, 7
-29.1897, -4.96624, 3.97784, 24
-28.862, -5.91713, 2.45785, 24
-28.0845, -5.5433, 4.42269, 11
-26.175, -5.64155, 3.87514, 14
-27.3549, -5.15768, 2.52605, 33
-24.8353, -12.2978, 2.67106, 22
-25.2002, -11.3982, 4.10126, 50
-27.2221, -6.4978, 2.37302, 22
-24.9972, -11.6029, 3.62368, 10
-28.3756, -12.3097, 2.82537, 28
-25.1745, -11.0512, 3.60817, 21
-26.923, -9.47268, 3.91759, 23
-25.3221, -8.90988, 4.77715, 18
-28.4859, -7.4644, 4.1348, 35
-27.2073, -9.27328, 4.76552, 16
-28.1873, -8.30335, 4.85752, 16
-27.1283, -8.82774, 4.72762, 15
-28.5525, -10.1517, 2.4136, 29
-28.7913, -6.89674, 4.11631, 16
-28.3617, -7.81773, 2.84071, 28
-31.9896, -5.74148, 2.63642, 17
-25.8291, -6.2973, 3.87433, 13
-25.5694, -7.32718, 2.45653, 16
-27.9848, -5.96232, 4.40171, 13
-30.183, -5.17883, 2.93857, 11
-28.1417, -5.24016, 3.40208, 23
-27.9237, -5.28877, 4.774, 45
-28.4324, -5.08815, 3.43969, 23
-25.4456, -12.0112, 2.3694, 30
-25.4997, -8.06808, 3.09792, 11
-26.9002, -6.48903, 3.47331, 22
-24.9207, -7.61582, 2.91907, 17
-27.4661, -6.70031, 2.85467, 10
-26.8788, -6.06851, 3.71756, 40
-29.1165, -6.39164, 4.74435, 45
-28.9566, -5.54608, 4.18915, 17
-24.9512, -6.85735, 3.55018, 20
-31.3434, -5.01573, 4.9444, 9
-27.0953, -6.60401, 4.25971, 14
-26.6953, -7.39837, 2.56607, 11
-27.579, -5.94331, 3.54482, 22
-30.2673, -6.29832, 2.79219, 12
-26.1789, -8.55415, 2.709, 28
-27.3417, -6.60207, 2.00287, 40
-27.5012, -5.73634, 3.45968, 10
-31.905, -5.72923, 4.73553, 8
-24.942, -12.01, 2.30656, 42
-25.2291, -8.81173, 4.76958, 20
-28.0703, -5.47564, 2.18744, 11
-26.6231, -12.0597, 3.61395, 24
-24.8011, -7.75922, 4.35377, 20
-26.4009, -8.48018, 4.72339, 9
-25.1853, -11.0443, 4.15195, 17
-27.7313, -7.17309, 4.40825, 7
-24.9302, -11.9873, 2.75525, 42
-27.0605, -7.27701, 2.1363, 18
-29.5222, -6.02047, 4.15932, 19
-27.4067, -6.46054, 2.78057, 34
-25.5384, -11.0267, 3.33485, 67
-28.4022, -5.11036, 3.64703, 14
-26.561, -5.16003, 2.1473, 22
-25.0955, -11.6518, 3.65421, 22
-27.5422, -7.81554, 3.8784, 10
-24.8097, -12.6742, 2.06566, 11
-26.3183, -8.00191, 2.6682, 33
-27.0746, -9.32904, 4.92412, 46
-29.6913, -10.3118, 2.78433, 8
-28.0691, -6.82645, 3.78351, 9
-25.5219, -11.6417, 2.00942, 21
-25.8835, -5.16881, 2.27666, 33
-25.4531, -7.65661, 2.20391, 25
-29.837, -6.16359, 2.77022, 27
-27.9839, -5.80359, 3.59179, 41
-31.8329, -6.04559, 3.29632, 34
-26.0899, -7.6761, 3.65947, 15
-27.5031, -11.0787, 2.49583, 21
-29.812, -9.86688, 2.40799, 31
-25.4152, -11.2388, 2.63809, 42
-25.4583, -9.22649, 3.17741, 18
-24.947, -7.68104, 3.20266, 10
-29.065, -6.33493, 4.23398, 16
-24.8662, -7.72737, 3.48967, 29
-29.0627, -7.09568, 4.77633, 25
-26.7313, -8.39815, 2.73813, 30
-30.2219, -11.3843, 2.20542, 11
-28.9411, -8.11335, 3.33901, 30
-30.7279, -7.56078, 2.60026, 22
-27.0573, -6.36702, 4.45056, 16
-26.5707, -7.33621, 3.1073, 13
-26.467, -6.9517, 2.76502, 13
-25.6358, -10.3051, 3.18635, 19
-27.7934, -10.109, 2.4202, 10
-30.5378, -5.41286, 4.20806, 17
-26.4443, -6.91881, 3.55936, 13
-25.992, -7.33119, 3.77074, 13
-25.538, -10.1853, 3.69776, 100
-25.1819, -9.76585, 2.56241, 16
-27.8773, -4.95346, 4.54951, 23
-27.5824, -6.06912, 2.90488, 27
-25.4287, -10.6495, 4.81971, 33
-29.2761, -5.70892, 4.82635, 11
-27.2123, -6.11003, 4.21472, 8
-28.6383, -5.05932, 4.88703, 23
-24.9172, -11.8406, 2.61587, 40
-28.0637, -5.20213, 2.92785, 31
-25.5255, -10.515, 4.41082, 22
-29.937, -5.41708, 2.95287, 32
-24.9867, -11.8883, 3.22777, 45
-26.2271, -9.86705, 4.78542, 48
-27.4556, -7.54406, 4.30209, 6
-24.9873, -12.2176, 2.2613, 31
-25.2712, -11.3422, 3.89649, 44
-27.0387, -7.25465, 2.37587, 22
-26.7924, -12.4053, 4.09811, 16
-29.9131, -5.64293, 3.19348, 39
-25.8722, -7.06593, 2.64245, 11
-31.4114, -6.80175, 2.05243, 22
-28.0292, -5.68941, 3.78741, 46
-29.7683, -6.15574, 2.94927, 32
-31.839, -5.97352, 3.67499, 18
-25.4558, -11.4574, 4.53086, 10
-27.8035, -9.8013, 4.85984, 16
-31.9735, -5.45782, 2.72995, 13
-25.0298, -10.2039, 4.67566, 30
-28.6149, -11.4576, 2.93979, 32
-26.8601, -10.3543, 2.86631, 57
-26.3035, -10.8428, 4.43758, 23
-26.8497, -5.64625, 3.63474, 44
-26.1276, -10.1337, 2.39281, 22
-28.6736, -5.36333, 4.32456, 14
-27.9068, -9.03018, 4.01927, 30
-26.2134, -8.28804, 4.74297, 18
-26.3396, -8.65546, 2.6727, 52
-27.8756, -8.42616, 2.51318, 36
-25.3504, -10.307, 2.42637, 40
-26.3215, -7.13197, 2.79153, 42
-28.1465, -9.46349, 2.85685, 21
-26.5588, -6.20655, 4.20871, 7
-30.3746, -7.50788, 2.44384, 11
-30.0929, -10.2347, 3.05334, 33
-28.1301, -6.87366, 2.01611, 30
-28.6254, -6.33628, 2.86488, 8
-26.5046, -6.14354, 4.33698, 28
-30.3493, -6.30079, 3.82755, 28
-27.5458, -8.27829, 4.62648, 15
-25.3316, -9.556, 2.47526, 40
-31.7644, -5.10944, 3.85324, 34
-28.2595, -8.14404, 2.89668, 11
-27.2513, -5.22947, 2.74452, 33
-28.4721, -5.67785, 3.32338, 14
-25.5799, -8.41976, 2.49568, 19
-29.5795, -6.81004, 3.08863, 26
-31.7825, -6.49881, 3.62952, 12
-25.1038, -12.2654, 3.41049, 19
-28.4749, -7.75816, 4.68982, 40
-28.1254, -8.63562, 3.37455, 38
-27.1625, -12.4366, 3.04201, 24
-28.5368, -8.01066, 4.57782, 16
-26.9065, -12.1829, 4.07993, 20
-24.8458, -12.5636, 3.56671, 28
-25.0693, -8.72058, 2.49196, 17
-29.4957, -7.33334, 3.09695, 27
-25.0709, -7.07374, 3.68591, 12
-24.8559, -12.6383, 2.90309, 40
-27.5804, -7.76125, 4.78746, 24
-27.6439, -6.20648, 4.53326, 28
-28.0635, -5.73507, 3.82144, 19
-25.7599, -10.7454, 2.6599, 31
-28.5412, -5.92462, 4.56327, 14
-28.5857, -9.95161, 3.25142, 8
-26.8988, -6.67664, 4.48578, 40
-28.9966, -5.25068, 4.52472, 40
-24.8806, -6.91521, 3.79435, 39
-27.9849, -5.35628, 4.61036, 22
-27.6856, -6.2513, 2.86405, 23
-26.8091, -12.3138, 4.56346, 11
-28.3242, -5.81868, 2.96859, 40
-25.0879, -11.6316, 2.61602, 10
-24.955, -10.7898, 4.14472, 21
-29.6987, -5.1032, 4.52033, 15
-27.3594, -6.34119, 2.49722, 21
-29.469, -5.97165, 3.12075, 11
-24.8469, -10.0024, 2.92642, 11
-27.5417, -5.18677, 4.87462, 22
-27.7386, -10.9191, 4.59266, 11
-27.6148, -5.10451, 2.55255, 22
-29.7941, -7.36132, 2.72287, 10
-24.966, -12.8418, 2.81715, 8
-27.5029, -7.9876, 4.59325, 45
-25.1673, -9.20254, 2.30845, 42
-30.3678, -7.72372, 2.73771, 30
-25.0512, -11.3673, 4.65722, 31
-28.0843, -7.97851, 2.24805, 40
-29.2327, -5.99944, 2.51338, 24
-26.7839, -6.72429, 4.40467, 16
-26.3034, -7.46955, 3.06583, 7
-26.6334, -7.32684, 2.81268, 22
-27.3039, -11.6967, 4.01169, 15
-29.7558, -6.58168, 2.772, 27
-31.8955, -5.4934, 2.83599, 8
-27.6011, -6.8871, 2.1012, 30
-28.0492, -5.87483, 3.67954, 27
-29.3374, -6.9056, 2.3882, 11
-25.5434, -7.48149, 3.16352, 24
-31.3003, -5.4895, 3.83467, 21
-29.1374, -7.61178, 4.84502, 30
-26.8369, -5.70454, 3.25522, 13
-25.3342, -12.2029, 4.80797, 8
-25.9574, -6.89309, 2.37061, 31
-28.5015, -5.75571, 4.50552, 27
-28.8216, -5.87682, 4.42702, 14
-30.4079, -7.58432, 2.1575, 10
-27.2518, -5.81009, 3.16998, 48
-29.2181, -6.38208, 2.31777, 11
-28.2069, -5.23385, 3.56873, 35
-31.8354, -5.07631, 3.19225, 25
-26.8016, -5.65639, 2.81154, 31
-24.9574, -12.2008, 4.92191, 58
-27.9791, -5.19189, 2.91951, 36
-28.4971, -5.41824, 4.66294, 16
-25.8749, -10.3028, 2.91835, 41
-28.1542, -6.34294, 3.39092, 7
-26.7897, -12.8369, 4.92799, 9
-25.025, -6.74618, 2.79175, 7
-26.5968, -6.76209, 2.42863, 10
-24.9922, -9.30737, 3.24255, 21
-26.5239, -9.46358, 4.56673, 10
-30.2736, -9.77396, 4.16152, 11
-31.9765, -5.09553, 4.46068, 13
-29.6295, -6.42264, 2.33682, 30
-29.5639, -6.66296, 2.50704, 28
-25.1537, -7.89773, 4.09775, 21
-26.7502, -11.0213, 2.94595, 23
-28.3708, -8.66964, 4.07487, 11
-27.7857, -5.80586, 4.3676, 9
-25.2255, -10.5295, 2.75251, 42
-27.9051, -7.40934, 2.52226, 23
-26.9612, -5.44156, 2.80728, 30
-29.3044, -5.75217, 3.97063, 29
-25.0687, -7.31515, 3.30239, 20
-27.0295, -6.17166, 3.50181, 22
-25.4115, -12.6971, 4.79884, 14
-29.1391, -5.85336, 3.03056, 8
-24.7864, -7.61654, 2.3648, 20
-27.4811, -12.7028, 4.61469, 27
-26.1683, -7.49161, 2.78335, 21
-25.1349, -10.6453, 3.60918, 9
-29.7362, -6.27724, 4.63632, 10
-27.0282, -11.1823, 2.84762, 11
-27.5582, -6.70935, 3.92879, 14
-30.4946, -6.08853, 4.75246, 30
-28.0845, -7.3155, 2.5965, 40
-26.5067, -6.55509, 3.74831, 13
-27.5665, -6.60336, 4.11159, 7
-25.0321, -11.3459, 2.42558, 22
-30.5752, -6.98697, 2.85305, 30
-25.8545, -10.5556, 2.10811, 81
-30.7478, -5.50149, 4.54357, 14
-28.0481, -10.1606, 2.81826, 8
-28.3043, -8.61814, 4.32168, 9
-28.5643, -9.94062, 4.66166, 10
-25.5968, -7.36874, 2.36632, 39
-27.9395, -6.2938, 4.59683, 24
-25.882, -6.55075, 3.78655, 29
-27.9142, -9.11075, 2.88385, 11
-31.7286, -6.22827, 3.14682, 12
-27.624, -7.81357, 2.41932, 23
-29.723, -7.56321, 3.0271, 12
-25.2926, -11.8431, 2.01409, 21
-27.7873, -6.95066, 3.86801, 9
-24.8049, -7.98619, 4.22474, 28
-30.8216, -6.40145, 3.41496, 21
-25.3876, -9.45083, 4.39396, 10
-24.8632, -8.43007, 2.46571, 28
-25.4942, -10.1438, 3.85656, 58
-27.8315, -5.17257, 2.8371, 40
-28.135, -5.69556, 3.33732, 15
-24.9176, -11.6321, 2.94074, 60
-27.3128, -11.7361, 2.71572, 24
-25.5541, -10.9925, 3.62702, 67
-25.1392, -12.4508, 4.62573, 22
-28.0343, -5.67717, 2.35014, 7
-25.2786, -11.3122, 2.33182, 84
-29.5638, -5.11179, 3.91613, 16
-25.3558, -10.1152, 4.16622, 66
-28.8273, -6.02773, 2.18672, 30
-28.9779, -5.07301, 3.46685, 15
-27.0249, -5.50712, 3.09613, 32
-28.6963, -5.09267, 3.64609, 11
-26.58, -5.46459, 2.98226, 40
-27.6297, -5.54053, 4.40922, 17
-24.8594, -10.3461, 2.73936, 21
-26.9839, -9.45456, 4.7338, 33
-26.8749, -9.6396, 2.70693, 23
-29.6075, -7.82886, 2.08703, 31
-28.1538, -5.21011, 4.59784, 23
-27.9282, -6.05438, 2.98192, 11
-29.0825, -6.97011, 2.546, 37
-26.2793, -7.35464, 3.20029, 22
-28.1033, -8.11252, 2.49817, 18
-25.0518, -10.9491, 3.85092, 14
-27.2835, -11.16, 2.29247, 41
-27.9853, -5.14634, 4.78249, 23
-26.2885, -9.94377, 2.63409, 61
-26.7642, -12.1975, 3.88892, 72
-30.5305, -7.01787, 2.82666, 12
-26.3935, -7.02753, 3.37487, 33
-25.382, -11.7002, 2.68167, 22
-25.286, -6.91884, 3.2346, 32
-30.0754, -8.30273, 4.8975, 17
-26.6551, -12.6478, 4.1275, 15
-28.1359, -5.33596, 4.65988, 31
-26.065, -5.8005, 4.2535, 12
-27.1423, -9.00973, 4.51409, 23
-27.1301, -9.22066, 4.5179, 23
-25.3263, -10.2565, 3.72587, 66
-27.6885, -6.15428, 3.94969, 21
-24.8484, -11.1824, 2.22137, 10
-27.5055, -5.11997, 2.52971, 36
-26.2519, -9.96252, 4.86671, 45
-29.1656, -5.19255, 3.03637, 42
-25.1498, -11.214, 4.58113, 14
-24.9734, -12.0775, 2.97003, 40
-28.2396, -6.5174, 2.43107, 23
-24.8237, -9.63843, 2.55044, 31
-31.3645, -6.96516, 3.28482, 33
-27.2373, -8.53665, 4.37066, 14
-28.3773, -7.83317, 2.54525, 34
-30.7052, -7.78885, 2.11904, 15
-28.0278, -6.93098, 2.52226, 23
-25.921, -6.82587, 2.74635, 21
-25.5724, -10.3844, 2.97542, 45
-28.2684, -5.58383, 4.78302, 30
-27.0251, -9.42748, 4.18056, 41
-25.7142, -12.3275, 4.39891, 23
-26.1655, -7.17787, 3.58635, 44
-27.0352, -6.20323, 2.46256, 16
-31.2923, -5.80901, 3.73092, 12
-29.8856, -6.17095, 3.46831, 16
-27.6067, -6.19818, 2.5195, 31
-25.2016, -11.365, 3.74853, 90
-25.0355, -12.2714, 2.02011, 11
-29.5319, -6.3681, 2.83465, 36
-25.1199, -7.69341, 2.01017, 39
-27.8949, -12.8293, 4.15063, 36
-27.0438, -12.5378, 2.97285, 21
-27.543, -7.40332, 3.58101, 14
-25.1107, -12.6561, 4.79092, 23
-26.4522, -6.72779, 2.36379, 6
-24.7804, -13.1352, 3.76072, 22
-25.9558, -6.76968, 3.14442, 11
-26.459, -6.13737, 4.43932, 9
-26.1842, -6.91285, 2.78471, 30
-30.3131, -5.36387, 3.23344, 11
-28.4469, -12.7829, 3.17743, 30
-27.9926, -8.47769, 4.50361, 7
-26.4733, -9.63075, 2.39778, 22
-28.4636, -5.46576, 2.53202, 23
-26.094, -8.05689, 4.18568, 22
-27.6064, -11.4094, 2.99036, 10
-26.873, -6.60532, 4.66444, 16
-25.231, -11.4795, 4.46929, 35
-27.4831, -6.29521, 2.7371, 42
-31.7991, -5.70512, 3.79865, 18
-26.2702, -6.70635, 2.6305, 31
-26.866, -11.6313, 3.00939, 31
-29.7422, -6.82085, 4.88026, 28
-28.1187, -10.8864, 4.37158, 11
-25.3365, -9.42454, 2.59396, 31
-29.2941, -7.8692, 3.29858, 9
-27.2198, -8.01012, 2.60073, 22
-28.7434, -6.21905, 2.05179, 30
-31.316, -13.1047, 3.20861, 15
-27.4913, -5.28069, 2.80305, 35
-26.6967, -6.22016, 3.61145, 40
-26.2274, -10.6982, 2.31706, 10
-28.8759, -6.05634, 4.25918, 35
-30.9758, -5.69839, 4.83131, 20
-25.8248, -7.5025, 2.49402, 40
-30.1318, -5.90145, 2.97917, 32
-28.2861, -5.3984, 3.93864, 37
-28.8409, -10.0124, 4.71169, 31
-31.7467, -6.59603, 2.22547, 41
-30.1618, -5.07927, 4.42416, 13
-25.4051, -11.1505, 4.60117, 22
-26.3189, -6.78258, 4.61807, 40
-27.9409, -8.36176, 2.2171, 9
-26.7806, -11.7452, 3.80681, 11
-29.4108, -10.0024, 3.33152, 11
-25.2569, -11.3895, 2.62657, 31
-25.4188, -10.6334, 4.33108, 44
-28.0604, -7.16934, 3.79637, 15
-25.5688, -11.9635, 2.08995, 21
-26.5406, -6.6955, 4.93201, 27
-27.8341, -10.0149, 3.51104, 64
-24.9289, -12.4415, 3.60115, 33
-24.9922, -7.12428, 3.44459, 22
-28.9671, -5.55391, 3.96117, 24
-30.4314, -7.6569, 2.23532, 21
-26.3807, -7.4537, 2.36855, 30
-28.8226, -6.37391, 4.43063, 14
-26.0722, -7.86126, 2.7732, 21
-28.7937, -5.00705, 3.94386, 12
-26.1671, -8.09673, 3.84266, 15
-30.3058, -6.53375, 4.37331, 9
-30.2678, -5.59051, 3.8489, 12
-26.0341, -7.2853, 3.44561, 27
-26.6237, -6.75643, 4.31885, 40
-26.3621, -7.8221, 2.59808, 32
-25.2809, -11.6336, 4.60566, 22
-31.9031, -7.17012, 4.06866, 8
-27.7394, -8.61822, 3.74308, 18
-25.7337, -9.63337, 2.27947, 9
-27.8749, -5.49008, 4.15734, 7
-25.3241, -10.1553, 2.37779, 9
-25.7368, -8.03843, 3.59987, 22
-29.9007, -6.57207, 4.3313, 7
-27.2406, -11.2899, 2.46521, 41
-27.0884, -13.6024, 3.6236, 20
-28.358, -5.00226, 2.7642, 20
-26.1714, -8.84604, 4.87199, 32
-28.5724, -9.9877, 3.79113, 8
-29.9041, -10.1178, 4.24246, 8
-27.3528, -5.23462, 2.04326, 9
-28.6192, -5.38492, 4.55605, 8
-28.2413, -5.54616, 2.39289, 40
-26.261, -5.58662, 3.7936, 18
-29.5482, -5.72199, 2.85654, 15
-28.1331, -5.70815, 4.56521, 32
-27.588, -5.75174, 4.53869, 23
-29.6729, -8.03487, 4.93791, 28
-28.26, -8.35824, 4.01596, 22
-29.9989, -6.16141, 3.907, 7
-25.7441, -7.94787, 3.29593, 10
-24.8246, -9.80119, 2.60678, 9
-27.9971, -6.73573, 2.85928, 8
-25.5007, -9.9873, 4.18698, 16
-28.192, -6.08095, 4.43154, 39
-25.593, -10.9337, 2.68693, 39
-28.31, -5.24235, 2.78212, 40
-30.8094, -5.95412, 3.73479, 20
-27.2383, -5.25651, 2.78813, 29
-25.15, -6.56365, 2.79814, 21
-29.3886, -5.05616, 3.28249, 15
-26.8812, -5.57697, 2.81388, 19
-27.3728, -6.24439, 2.06632, 30
-27.6794, -7.07823, 2.11122, 41
-26.8311, -6.86398, 4.38443, 18
-30.2858, -8.12449, 2.68063, 39
-27.5614, -5.07005, 3.34972, 21
-28.9682, -8.27376, 2.14284, 31
-27.1593, -7.91147, 2.85342, 37
-28.109, -8.61896, 3.04584, 10
-27.9543, -8.74155, 3.05687, 40
-30.2926, -10.4992, 4.12722, 21
-27.4278, -8.92616, 2.20949, 11
-26.7172, -11.1891, 3.27395, 40
-27.3994, -12.7858, 2.52578, 31
-25.2808, -11.7883, 3.34136, 29
-25.6721, -12.1885, 2.55312, 20
-28.4837, -5.03118, 2.93657, 20
-28.0173, -5.54434, 2.19661, 23
-26.9825, -8.45695, 4.93017, 25
-25.8958, -8.78906, 4.26733, 19
-27.3447, -12.0314, 2.91309, 12
-26.1213, -12.1428, 3.78534, 10
-24.8809, -9.32568, 3.0874, 48
-28.1191, -6.69337, 2.06769, 41
-25.532, -9.90761, 4.835, 10
-28.367, -6.46539, 2.08381, 8
-26.5141, -5.78714, 3.54917, 40
-28.7036, -9.83835, 3.24632, 8
-27.2123, -6.74876, 4.46721, 38
-29.4961, -5.28025, 4.49586, 14
-25.0728, -6.89812, 3.99831, 13
-26.2465, -7.43664, 3.11524, 13
-27.7255, -9.22727, 4.17847, 30
-29.6839, -6.47564, 2.87878, 12
-25.4088, -8.11237, 2.49846, 9
-25.7406, -7.3409, 3.89716, 40
-26.1681, -8.36663, 4.64089, 9
-25.7131, -9.2942, 3.14988, 9
-29.4082, -6.97774, 3.0923, 32
-25.281, -8.37268, 2.41304, 24
-25.2847, -9.20809, 2.85143, 30
-29.4316, -7.84488, 3.46015, 10
-27.2589, -8.12384, 3.01779, 9
-25.2128, -8.89457, 2.47065, 8
-29.4297, -7.63504, 2.53654, 12
-25.4955, -7.99158, 3.23164, 25
-27.4059, -8.88037, 2.28477, 15
-28.4154, -5.55429, 3.54987, 23
-26.4236, -8.72567, 4.94311, 6
-28.2934, -7.48858, 2.61332, 28
-24.7879, -11.721, 4.30234, 10
-26.8458, -8.31357, 4.79184, 19
-29.79, -5.19179, 2.054, 9
-26.58, -7.44974, 3.18171, 27
-31.0158, -6.01823, 3.86479, 41
-29.5725, -5.61591, 4.58517, 10
-27.4419, -6.9388, 2.44589, 10
-30.229, -6.39271, 4.74394, 10
-28.3313, -5.56497, 3.52851, 47
-27.5219, -10.0717, 2.44466, 51
-30.1631, -5.31616, 4.19641, 9
-26.0445, -6.90146, 3.56405, 16
-27.7686, -7.22012, 2.39529, 9
-25.7605, -10.0089, 3.45364, 8
-28.6524, -9.84024, 4.29626, 31
-25.519, -10.4756, 3.51384, 11
-30.7149, -5.69617, 4.89213, 18
-26.6945, -13.564, 4.34703, 20
-28.2272, -6.99762, 2.75872, 37
-25.665, -9.85569, 2.12286, 16
-28.3923, -5.17627, 3.84662, 28
-25.9858, -6.67731, 3.06547, 24
-27.2561, -6.19484, 4.67226, 15
-27.0325, -6.16171, 3.78156, 40
-29.0224, -5.05618, 4.23963, 7
-24.9923, -6.47763, 3.46846, 7
-26.2627, -10.0224, 2.38899, 30
-26.882, -11.6778, 2.84653, 11
-29.0454, -6.75706, 3.7469, 41
-26.0971, -11.0049, 3.78085, 30
-25.8571, -7.56336, 2.57265, 7
-30.1284, -5.87493, 3.2268, 10
-31.7709, -6.52698, 2.28737, 10
-24.7873, -7.40724, 3.25349, 33
-29.0829, -6.01837, 4.01109, 16
-30.8882, -6.65524, 3.1062, 30
-28.0097, -5.95984, 4.7022, 15
-25.6306, -7.3387, 2.6299, 30
-29.4846, -7.42858, 3.40809, 40
-29.6048, -5.74893, 4.20536, 7
-25.3898, -7.06807, 3.69974, 12
-31.7855, -5.33707, 4.55142, 9
-27.6706, -6.79088, 4.0416, 15
-25.3755, -7.22199, 3.38125, 14
-24.8253, -11.1831, 4.5512, 15
-26.0598, -7.11709, 2.58181, 32
-28.0719, -7.41057, 2.43672, 23
-26.7455, -5.39812, 3.28964, 17
-25.0945, -11.9006, 4.69055, 46
-26.5265, -6.27022, 3.24611, 10
-25.0137, -12.8805, 4.84714, 16
-28.1552, -7.27709, 2.20094, 10
-31.9414, -6.13686, 2.64839, 31
-28.5918, -6.73962, 3.48521, 15
-26.5365, -6.89523, 2.86277, 8
-28.0877, -6.86522, 3.48516, 15
-25.3166, -11.7226, 2.27317, 42
-27.9023, -7.01297, 4.25453, 15
-27.9374, -7.29889, 2.78017, 9
-27.6323, -9.91219, 2.54149, 34
-30.2381, -5.14359, 4.06753, 17
-25.9595, -6.51387, 3.49102, 29
-26.9923, -7.37201, 2.06443, 30
-26.0935, -7.39941, 3.48203, 69
-30.5881, -7.43464, 2.10581, 13
-27.5487, -10.872, 4.86645, 20
-27.7611, -6.35582, 3.17726, 13
-25.3229, -8.719, 4.39784, 5
-24.8924, -13.3158, 3.54273, 9
-28.1125, -5.39078, 3.16358, 23
-28.3618, -5.65593, 4.21912, 15
-25.5219, -12.5792, 2.02575, 30
-26.3771, -5.39964, 3.7299, 10
-27.8166, -8.79234, 2.48547, 9
-30.787, -7.1889, 2.22947, 13
-24.7543, -8.01729, 2.2695, 22
-26.4042, -9.14817, 2.40782, 40
-26.5429, -6.69202, 4.4183, 18
-27.8067, -9.99994, 3.25288, 39
-25.3141, -8.35783, 3.15667, 8
-25.6709, -10.4809, 4.27227, 35
-27.4206, -13.9356, 2.89524, 31
-27.9166, -8.09498, 3.97985, 10
-25.1823, -12.803, 2.05776, 11
-31.3647, -5.12504, 2.17508, 20
-31.893, -6.09025, 2.28105, 31
-27.68, -5.09074, 2.19928, 30
-25.0075, -8.23153, 3.40691, 7
-29.12, -6.6727, 3.91028, 15
-29.1276, -7.12424, 2.42174, 41
-28.0783, -6.79693, 2.39256, 30
-28.2035, -5.90875, 2.98293, 60
-28.5668, -7.60882, 2.48253, 40
-25.9171, -6.41137, 3.69499, 13
-26.1088, -6.95466, 3.78664, 13
-31.8174, -6.7811, 2.17663, 9
-25.1039, -6.83648, 4.36963, 12
-24.8373, -8.78366, 3.59303, 13
-28.9938, -7.16375, 4.07883, 15
-25.0552, -7.49609, 3.15519, 38
-26.9709, -7.99878, 2.27414, 14
-28.9245, -10.2989, 3.61668, 10
-27.728, -5.81928, 2.52977, 31
-26.1115, -12.2756, 3.84094, 9
-25.0925, -11.7851, 3.75479, 9
-27.6188, -8.23929, 4.79096, 14
-24.9792, -12.9061, 3.14358, 10
-30.868, -4.97217, 2.05297, 10
-31.8008, -5.5375, 3.94499, 19
-30.1331, -5.1841, 2.85517, 9
-31.1519, -5.71794, 3.76309, 17
-29.4264, -4.98621, 4.72789, 11
-28.6775, -5.16924, 2.81762, 27
-26.7217, -5.2906, 3.45335, 13
-25.9369, -6.56694, 3.59587, 13
-27.8862, -8.5942, 3.15742, 10
-25.2124, -6.80874, 4.27918, 39
-24.8655, -7.20416, 2.99382, 7
-25.3932, -8.65862, 3.19866, 25
-29.9922, -6.347, 2.97323, 8
-26.8176, -6.74245, 3.32115, 15
-27.4874, -13.2304, 2.18006, 12
-27.9663, -5.2814, 3.24746, 13
-25.5165, -9.57832, 4.89354, 75
-26.4707, -7.23146, 2.41866, 42
-27.5477, -10.5906, 4.89957, 10
-29.1003, -5.58076, 4.41706, 10
-24.899, -7.16687, 3.98761, 28
-27.2153, -13.309, 2.72462, 20
-25.2715, -10.1181, 4.30482, 41
-30.5644, -6.0882, 4.62002, 14
-25.2472, -7.21572, 3.87794, 9
-29.4201, -5.70639, 4.45659, 6
-28.3551, -6.48973, 2.30518, 9
-27.2592, -6.01129, 3.62734, 13
-27.1286, -6.77226, 2.05227, 8
-30.6016, -7.97133, 4.93543, 7
-27.1362, -6.57769, 3.01421, 27
-27.0277, -6.10149, 4.61305, 30
-27.9608, -10.3915, 2.64919, 8
-26.252, -7.2005, 3.80543, 15
-26.846, -9.23824, 4.12362, 15
-25.1932, -12.0196, 2.18381, 8
-28.02, -7.29756, 3.93841, 37
-26.3028, -9.47359, 2.68358, 18
-25.499, -11.2903, 2.17942, 30
-31.6123, -11.3549, 2.46317, 38
-27.6714, -6.19404, 4.66346, 16
-24.8901, -11.1817, 2.91988, 9
-28.8333, -5.29268, 2.55374, 14
-28.7147, -5.82796, 4.07259, 6
-25.625, -10.8877, 2.29488, 33
-28.1187, -5.96936, 4.05652, 17
-27.1644, -6.57744, 4.10063, 5
-26.9566, -6.62166, 3.4054, 13
-27.8077, -6.58115, 3.58155, 22
-29.3745, -9.79253, 2.34665, 39
-27.5321, -9.24709, 2.33473, 9
-25.821, -8.04492, 2.91972, 13
-25.1317, -9.79575, 2.47689, 27
-29.5196, -7.7587, 2.18244, 9
-26.5155, -11.1662, 4.93543, 28
-28.9865, -6.71975, 4.23645, 9
-24.8375, -8.14314, 3.59719, 13
-30.8106, -5.5333, 3.92836, 16
-28.7942, -5.14167, 2.8605, 40
-25.943, -7.78436, 2.68189, 26
-29.8905, -6.23926, 3.21615, 15
-28.0849, -5.58725, 4.13921, 20
-27.7475, -7.61377, 2.29495, 9
-31.8475, -6.1332, 3.11019, 8
-28.8146, -7.39995, 3.35095, 15
-28.3832, -7.99136, 4.94704, 20
-25.3269, -8.57798, 3.26399, 13
-27.9442, -8.59567, 3.50499, 15
-24.8811, -11.6223, 3.20466, 33
-29.141, -10.2513, 3.77333, 17
-28.131, -5.95459, 3.36993, 34
-27.3429, -9.12824, 3.72189, 19
-26.7103, -5.18654, 4.83268, 7
-28.3487, -8.49014, 3.60208, 17
-29.656, -5.96482, 2.24638, 11
-28.3684, -5.49796, 2.21704, 10
-28.3703, -6.83984, 2.40594, 22
-25.5963, -6.5846, 3.73913, 22
-27.3, -9.2219, 2.20713, 11
-26.1222, -8.45805, 2.70735, 11
-30.8784, -5.70915, 3.78761, 11
-26.6721, -7.25971, 3.24211, 11
-28.1204, -10.5259, 2.12647, 8
-28.7713, -5.30713, 3.92959, 24
-26.0724, -10.1838, 2.19423, 32
-25.8058, -6.33516, 4.45537, 30
-26.8918, -6.59352, 2.24184, 9
-27.8642, -7.23364, 3.72761, 11
-28.2654, -8.29734, 2.4022, 9
-28.3397, -8.18811, 3.90028, 34
-27.7737, -8.02417, 4.61386, 30
-31.8023, -12.9148, 3.80014, 10
-30.523, -13.5272, 4.87336, 12
-27.7884, -8.37098, 2.60199, 22
-25.0264, -6.80542, 4.43521, 22
-30.5415, -6.82323, 3.15228, 31
-26.3406, -8.46561, 2.65866, 31
-28.2304, -8.34722, 4.08372, 14
-24.9998, -7.02383, 4.09715, 29
-31.9937, -11.9598, 2.49252, 13
-26.1215, -12.0386, 2.84149, 12
-30.2763, -10.4971, 3.24246, 31
-26.8787, -8.04592, 2.16755, 11
-24.9852, -11.5542, 4.43052, 16
-28.9623, -5.02368, 2.80854, 14
-28.5557, -5.31698, 2.72183, 13
-26.6763, -5.93816, 3.79644, 38
-28.0627, -7.9416, 2.40809, 40
-30.7924, -12.778, 4.47138, 9
-28.9492, -5.35463, 4.49478, 24
-26.0582, -10.1962, 2.74994, 15
-28.6112, -29.3878, 3.11086, 12
-28.5615, -29.4391, 2.18056, 19
-28.5807, -29.4555, 2.59164, 31
-28.8093, -29.2194, 2.83192, 12
-28.6105, -29.4491, 4.48431, 11
-28.6331, -29.3969, 2.39105, 18
-28.5918, -29.3154, 3.16557, 22
-26.7035, -9.46162, 5.49007, 8
-30.4561, -8.01535, 5.73525, 10
-29.2169, -7.14555, 5.39069, 9
-27.2766, -6.59652, 5.01044, 27
-28.9611, -10.2581, 5.05918, 8
-26.5847, -6.66599, 5.48994, 27
-28.7411, -5.561, 5.59198, 9
-27.0513, -6.58299, 5.53517, 27
-24.8598, -6.8845, 5.32761, 8
-25.9527, -8.19519, 5.49976, 7
-25.5008, -8.02006, 5.4302, 22
-27.9939, -6.11558, 5.17349, 8
-26.1084, -6.79525, 5.84542, 7
-25.7976, -7.0741, 5.85495, 7
-25.1426, -6.73373, 5.67701, 7
-26.0693, -9.05253, 5.52112, 8
-27.1641, -10.3459, 5.12127, 10
-27.8773, -7.18168, 4.97987, 22
-27.9874, -8.63038, 5.22269, 23
-30.1286, -10.3521, 5.86477, 31
-26.4636, -9.36561, 5.91152, 24
-26.5063, -5.51404, 5.73837, 30
-26.2494, -5.64736, 5.59424, 40
-27.1354, -6.82284, 5.97065, 10
-27.5506, -7.72197, 5.22775, 29
-27.6855, -8.57626, 5.19992, 30
-25.1563, -9.38332, 5.57458, 11
-25.543, -9.00849, 5.83326, 11
-26.0285, -9.67823, 5.14084, 30
-29.424, -5.25749, 5.61661, 12
-30.7662, -5.70825, 5.28875, 27
-26.6894, -5.20025, 5.29877, 6
-25.6242, -5.06821, 5.38449, 13
-26.7004, -6.91428, 5.41273, 15
-25.156, -9.37984, 5.9579, 30
-25.7608, -9.36966, 5.35839, 19
-25.5488, -9.49803, 5.00668, 29
-26.4145, -6.83693, 5.99003, 6
-25.0474, -10.0179, 5.65589, 41
-27.5577, -8.12278, 5.89073, 21
-26.0898, -6.23122, 5.10329, 11
-26.3484, -5.47832, 5.10636, 10
-26.8847, -6.07076, 5.19194, 10
-27.6855, -5.90806, 5.41758, 12
-28.0736, -5.2521, 5.33898, 11
-28.1267, -9.9844, 5.58621, 18
-27.5956, -5.74236, 5.09574, 35
-28.419, -6.61627, 5.33609, 12
-28.8976, -8.16322, 5.04102, 12
-31.0652, -12.0473, 5.66894, 10
-30.5515, -9.96964, 5.25924, 13
-26.2475, -9.97911, 5.12711, 100
-28.1189, -8.88448, 5.44154, 15
-26.9847, -8.79428, 5.4795, 13
-28.9217, -9.28063, 5.68063, 14
-27.0844, -9.03935, 4.99094, 15
-29.9575, -7.25223, 5.40603, 14
-29.8178, -6.41409, 5.65434, 14
-31.058, -6.78719, 5.9713, 25
-28.4515, -6.82982, 5.81777, 42
-29.9489, -6.70706, 5.91831, 14
-29.0443, -7.15498, 5.09484, 21
-27.2554, -9.0648, 5.54346, 13
-31.7202, -5.52957, 5.85797, 15
-31.4437, -5.71977, 5.1624, 26
-24.7633, -11.1838, 5.2777, 13
-27.0105, -7.82051, 5.88656, 15
-29.3411, -6.92858, 5.60288, 15
-31.8069, -6.63031, 5.74697, 16
-25.4456, -10.6704, 5.00276, 40
-28.9272, -9.13807, 5.90262, 15
-29.8792, -8.03175, 4.97904, 15
-26.4288, -8.4342, 5.69844, 10
-24.8494, -7.79542, 5.8648, 7
-28.5576, -7.50839, 5.82415, 23
-25.9081, -13.0195, 5.83209, 15
-24.7891, -11.426, 5.49398, 28
-27.0516, -9.3952, 5.33502, 40
-28.5984, -7.83984, 5.36493, 15
-25.5294, -8.5908, 5.47497, 21
-29.7625, -7.22794, 5.97531, 38
-25.1301, -9.24808, 5.45149, 22
-27.8725, -8.27906, 5.63628, 8
-25.6835, -9.52028, 5.62813, 29
-24.8547, -12.5205, 5.57309, 13
-28.8816, -7.71065, 5.59224, 16
-28.872, -7.54322, 5.6702, 8
-29.3941, -7.21893, 5.78071, 14
-25.1466, -9.64528, 5.55392, 23
-30.3127, -6.0271, 5.81364, 62
-31.7707, -5.61904, 5.83178, 9
-29.1716, -6.70887, 5.63315, 13
-25.145, -11.4672, 5.82145, 24
-25.1501, -8.66479, 5.59634, 15
-27.2301, -9.12183, 5.57737, 16
-30.0962, -6.52233, 5.15618, 31
-31.3763, -6.15646, 5.21282, 17
-30.377, -6.41063, 5.58332, 23
-26.7664, -8.9061, 5.84987, 8
-30.5524, -10.1436, 5.87619, 14
-24.914, -12.6034, 5.36813, 15
-26.6698, -7.91471, 5.66064, 11
-28.3877, -7.73299, 4.99878, 16
-29.7051, -6.72047, 4.95277, 14
-29.4831, -7.51148, 5.12722, 16
-30.4169, -6.74983, 5.21539, 16
-25.7628, -11.2704, 5.55212, 14
-31.7845, -6.68219, 5.39053, 17
-27.8106, -6.25386, 5.66254, 40
-31.7113, -7.44192, 5.98867, 9
-27.2646, -7.76149, 5.96632, 30
-29.5443, -6.56041, 5.97647, 12
-27.1384, -8.90812, 5.53043, 85
-25.7192, -9.35209, 5.81503, 46
-28.3431, -7.86062, 5.57431, 16
-28.6242, -7.72024, 5.79638, 18
-28.1182, -7.20167, 5.96291, 15
-30.0727, -7.74426, 5.15286, 14
-30.2006, -7.34384, 5.84787, 18
-28.0572, -7.52178, 5.23589, 20
-28.318, -7.74084, 5.13821, 11
-30.4584, -5.88069, 5.3646, 24
-25.3034, -10.5823, 5.14877, 48
-26.6302, -9.15295, 5.92438, 20
-26.722, -8.57706, 5.66709, 15
-30.5838, -8.00079, 5.02817, 16
-25.3776, -8.4501, 5.41196, 15
-27.076, -5.30218, 5.24027, 27
-29.0235, -5.83881, 5.94798, 16
-27.6893, -5.08001, 5.6632, 15
-24.7702, -10.4931, 5.32854, 6
-26.212, -9.31808, 5.07381, 15
-28.5376, -8.20139, 5.67472, 16
-28.4695, -7.05952, 5.78808, 11
-27.8409, -5.40177, 5.84424, 23
-26.6686, -8.44118, 5.50558, 10
-28.8573, -5.49369, 5.90215, 16
-26.5669, -8.49246, 4.95342, 13
-28.7864, -7.96457, 5.69045, 16
-28.385, -5.58689, 5.54305, 9
-28.1163, -8.49017, 5.49597, 9
-27.129, -9.3152, 5.59708, 47
-30.7449, -12.4153, 5.14725, 17
-29.9615, -6.84351, 5.38971, 63
-27.214, -8.62282, 5.89925, 42
-29.2823, -7.52636, 5.98513, 17
-27.1586, -7.70763, 5.29192, 12
-26.8551, -10.0532, 5.92103, 16
-25.245, -10.7153, 5.438, 45
-29.6297, -8.62502, 5.58684, 8
-27.8758, -7.30164, 5.93079, 11
-28.0077, -8.18591, 4.97303, 15
-31.1835, -5.66534, 5.17584, 24
-31.2724, -5.38646, 5.17171, 51
-27.2751, -5.24638, 5.26279, 25
-29.3327, -6.63282, 5.77016, 15
-27.5628, -4.97697, 5.95603, 16
-28.1813, -7.83751, 5.52909, 29
-26.1889, -10.0568, 5.66379, 51
-30.1127, -5.32595, 5.83543, 36
-24.9449, -11.2868, 5.10987, 10
-29.1215, -9.94107, 5.80439, 17
-25.2764, -11.0299, 5.76963, 15
-30.0038, -5.63274, 5.81481, 24
-25.3312, -10.5881, 5.55078, 22
-29.2194, -7.01289, 5.67756, 17
-25.1156, -11.7031, 5.79615, 15
-26.1722, -10.0632, 5.47949, 32
-30.6022, -5.54344, 5.85032, 18
-28.8077, -7.94371, 5.91689, 17
-26.6355, -8.03022, 5.30082, 9
-30.85, -7.89289, 5.40168, 12
-28.2332, -8.00172, 5.56602, 25
-27.8525, -8.23808, 5.79816, 17
-30.039, -8.00616, 5.52672, 24
-30.9741, -11.9501, 5.10401, 8
-30.0139, -7.43573, 5.22978, 12
-26.4718, -8.67642, 5.75569, 19
-29.5174, -7.51006, 5.41913, 14
-28.6615, -6.41887, 5.31707, 8
-28.8535, -6.6228, 5.84485, 11
-30.8127, -6.61948, 5.4523, 12
-27.1591, -8.15605, 5.29293, 12
-31.9969, -9.34864, 5.54352, 21
-26.5824, -8.4055, 5.83668, 15
-30.8576, -7.57299, 5.21738, 17
-26.21, -10.1148, 5.89184, 43
-29.7316, -6.81696, 5.29579, 28
-29.2168, -7.14654, 5.88518, 24
-29.2267, -5.96329, 5.15807, 11
-27.0697, -9.16693, 5.86632, 11
-26.27, -9.94979, 5.87356, 86
-30.4131, -10.1548, 5.81008, 13
-29.0196, -6.13316, 5.55202, 14
-25.2031, -8.48376, 5.26942, 14
-25.2123, -10.7503, 5.88973, 14
-28.93, -6.68607, 5.87634, 16
-27.0438, -9.40753, 5.15362, 65
-28.4216, -5.52782, 5.53833, 9
-30.5627, -5.73598, 5.33966, 16
-27.0848, -8.03751, 5.38387, 15
-29.0172, -6.8773, 5.43506, 17
-24.7615, -9.23145, 5.51572, 41
-29.0274, -7.78628, 5.95017, 17
-28.19, -8.12282, 5.35749, 15
-30.5617, -6.10439, 5.84959, 25
-25.4936, -8.5836, 5.20997, 21
-29.5594, -7.34862, 5.64724, 30
-25.3258, -11.2846, 5.48845, 13
-25.616, -11.1236, 5.64091, 13
-29.3741, -6.36163, 5.83386, 17
-26.0067, -10.0469, 5.70879, 32
-26.5424, -8.32346, 5.51041, 15
-30.1171, -6.29011, 5.79113, 9
-27.1506, -8.49554, 5.63563, 15
-28.2622, -7.15948, 5.77154, 16
-30.0326, -7.17685, 5.82068, 15
-26.9316, -8.59695, 4.95405, 16
-30.5077, -7.41882, 5.25469, 34
-25.3143, -12.6762, 5.47025, 30
-28.9688, -7.87027, 5.25736, 7
-25.2716, -8.70882, 5.29698, 14
-29.3132, -7.18613, 5.85528, 12
-26.3785, -8.58368, 5.88459, 11
-25.557, -11.4804, 5.43774, 15
-26.1542, -9.92232, 5.48884, 43
-28.3185, -8.06559, 4.99268, 24
-27.0138, -8.10397, 5.79763, 22
-24.7663, -11.1592, 5.13207, 22
-29.3772, -5.78718, 5.42517, 17
-25.2908, -8.91786, 5.09467, 23
-27.3053, -8.69992, 5.80333, 29
-24.8581, -10.2615, 5.42916, 49
-30.7731, -5.25248, 5.02205, 93
-27.1402, -5.20339, 5.41262, 40
-29.1579, -5.30373, 5.82885, 24
-25.4118, -8.47329, 5.74301, 13
-27.1176, -8.41372, 5.03304, 30
-30.4193, -5.90806, 5.23673, 31
-31.1449, -7.02798, 5.10959, 33
-25.2767, -7.93776, 5.39685, 22
-29.5392, -6.22096, 5.90274, 37
-30.6434, -4.98137, 5.39182, 30
-30.2476, -7.15892, 4.96777, 30
-26.2757, -9.95937, 4.96069, 42
