X,Y,Z,I,
-10.7181, 19.7435, 2.21999, 0
-12.344, 18.6932, 2.09793, 0
-12.1476, 18.8374, 4.444, 0
-10.7175, 19.7446, 2.93208, 0
-12.0719, 18.9142, 3.86123, 0
-12.3072, 18.683, 2.45168, 0
-11.7753, 16.0132, 2.58995, 0
-12.0714, 18.8654, 3.50166, 0
-10.8475, 19.6065, 3.59573, 0
-11.965, 15.7769, 2.86551, 0
-10.7172, 19.7475, 4.00744, 0
-11.9611, 16.1617, 3.33982, 0
-5.37257, 19.1515, 3.62505, 0
-12.2216, 18.855, 2.9383, 0
-12.1351, 18.7906, 2.57428, 0
-11.8497, 18.9583, 3.61657, 0
-11.872, 18.9278, 2.54442, 0
-5.98107, 19.1119, 3.58968, 0
-11.8483, 19.0741, 2.9645, 0
-12.0976, 18.8533, 2.07761, 0
-5.95154, 19.1147, 3.26336, 0
-5.9917, 19.1179, 2.94578, 0
-10.8653, 19.516, 3.22214, 0
-12.1568, 18.8584, 3.72273, 0
-12.1366, 18.833, 3.00142, 0
-11.8257, 18.9585, 4.04527, 0
-11.848, 19.0782, 2.24309, 0
-11.9719, 16.2082, 3.48948, 0
-12.1673, 18.829, 4.865, 0
-11.4417, 15.7248, 2.92594, 0
-11.8388, 18.9527, 4.4693, 0
-10.8409, 19.5334, 4.31116, 0
-12.1994, 18.7574, 4.63827, 0
-10.9478, 19.5067, 2.15198, 0
-6.25, 19.0747, 3.58851, 0
-12.2505, 18.7837, 2.47607, 0
-5.13021, 19.1343, 3.53144, 0
-11.4044, 16.5815, 3.25028, 0
-11.6058, 10.0465, 3.21047, 0
-11.6096, 10.0178, 2.89056, 0
-11.5459, 12.9413, 2.20366, 0
-11.6125, 9.91346, 2.75346, 0
-11.5871, 9.43467, 3.21126, 0
-11.7001, 9.64251, 2.72029, 0
-11.5541, 7.09868, 2.17331, 0
-11.5916, 9.38524, 2.89808, 0
-11.5816, 13.087, 2.70846, 0
-11.5818, 7.06771, 2.7495, 0
-11.6225, 10.3376, 3.46024, 0
-11.235, 13.2875, 4.71169, 0
-11.2223, 13.2899, 4.41881, 0
-11.3959, 6.93234, 2.46127, 0
-11.2039, 7.37869, 2.43419, 0
-11.4918, 10.6181, 3.18538, 0
-11.23, 7.35196, 2.21753, 0
-11.4995, 10.6418, 2.92903, 0
-11.1467, 13.3364, 3.33317, 0
-11.2553, 7.39763, 4.37097, 0
-11.2588, 7.40198, 4.13843, 0
-11.2928, 7.43228, 3.23325, 0
-11.2642, 7.36754, 2.33113, 0
-11.5675, 10.5873, 3.17075, 0
-11.2702, 7.37333, 2.11377, 0
-11.5729, 10.5541, 2.90999, 0
-11.369, 13.1292, 4.77725, 0
-11.5656, 10.446, 2.71515, 0
-11.5366, 6.74755, 2.19493, 0
-11.9154, 12.7226, 3.87152, 0
-11.5724, 9.60856, 3.12539, 0
-11.4062, 7.08459, 2.76339, 0
-10.9978, 13.4844, 4.14344, 0
-11.1506, 13.412, 4.50581, 0
-11.3329, 13.1193, 4.35169, 0
-11.3739, 6.91891, 4.25571, 0
-11.6765, 12.9798, 2.08748, 0
-11.9746, 12.7505, 2.74984, 0
-11.3854, 6.92595, 3.34515, 0
-11.2431, 13.3119, 2.99456, 0
-11.6696, 12.9721, 2.65019, 0
-11.8002, 6.5885, 2.35394, 0
-11.3811, 6.92333, 3.56949, 0
-11.1424, 13.3972, 4.79693, 0
-11.339, 13.1263, 3.77332, 0
-11.3805, 6.92294, 3.79681, 0
-11.8921, 12.7223, 3.30865, 0
-11.3696, 7.12694, 2.0381, 0
-11.799, 10.2174, 3.14817, 0
-11.3928, 6.93043, 2.68004, 0
-11.3416, 13.1294, 3.48686, 0
-11.3894, 6.92838, 2.90003, 0
-11.3149, 7.41421, 3.86508, 0
-11.0052, 13.5292, 3.57833, 0
-11.5358, 6.67168, 4.91574, 0
-11.619, 6.85623, 2.48935, 0
-10.9187, 13.6473, 3.92275, 0
-11.3537, 13.1433, 2.35669, 0
-11.5999, 6.84495, 4.07115, 0
-11.3363, 7.1061, 4.51213, 0
-11.8608, 12.7721, 2.25594, 0
-11.2379, 7.38208, 4.83844, 0
-11.2055, 7.36224, 2.86841, 0
-11.7747, 10.2205, 2.70573, 0
-11.8865, 12.7953, 3.72711, 0
-11.4631, 13.1822, 2.7762, 0
-11.5911, 6.83977, 4.53885, 0
-11.1726, 13.4484, 3.93084, 0
-11.6155, 6.85421, 2.71056, 0
-10.917, 13.6414, 4.20419, 0
-11.9142, 12.6996, 4.25403, 0
-11.5903, 9.56063, 3.26568, 0
-11.3559, 7.11834, 3.13904, 0
-11.4696, 13.1851, 3.06155, 0
-11.5881, 6.83804, 4.77677, 0
-11.3989, 6.93414, 2.24362, 0
-11.5291, 6.73437, 2.83424, 0
-11.9461, 12.7307, 4.43787, 0
-11.3559, 13.1459, 2.07703, 0
-11.6012, 6.84574, 3.83946, 0
-11.3378, 7.10701, 4.27749, 0
-11.0125, 13.5559, 3.29844, 0
-11.4967, 6.72498, 4.54648, 0
-11.6252, 6.85991, 2.05019, 0
-11.9188, 12.8149, 3.43334, 0
-11.8943, 12.6928, 3.69094, 0
-11.3671, 7.1254, 2.25597, 0
-11.7961, 10.2372, 3.39844, 0
-11.3441, 13.1323, 3.20206, 0
-11.992, 12.6034, 4.76874, 0
-11.3484, 7.11367, 3.58883, 0
-11.3524, 7.11614, 3.36317, 0
-11.9668, 12.7643, 4.66449, 0
-11.0226, 13.5468, 2.17125, 0
-11.344, 7.11088, 3.81609, 0
-11.5272, 12.9386, 4.88551, 0
-11.9368, 12.7531, 2.13147, 0
-11.2469, 7.39008, 4.60376, 0
-11.2047, 7.3705, 2.65075, 0
-11.6531, 12.9538, 4.37367, 0
-11.6524, 12.953, 4.08069, 0
-11.6672, 12.9694, 2.93353, 0
-11.6494, 12.9497, 4.66726, 0
-11.6721, 12.9748, 2.3681, 0
-11.3361, 13.123, 4.06155, 0
-11.2615, 7.56091, 3.67702, 0
-11.7841, 6.58602, 2.56685, 0
-11.0691, 13.5277, 2.25652, 0
-11.5346, 6.74864, 3.64565, 0
-11.3834, 7.44474, 2.57279, 0
-11.3647, 6.91334, 4.72247, 0
-11.4244, 13.0469, 2.3911, 0
-11.1544, 7.69345, 3.44109, 0
-11.1887, 7.75433, 2.15533, 0
-11.4319, 13.0236, 2.87701, 0
-11.2034, 7.77028, 3.89733, 0
-11.5075, 12.9578, 3.23066, 0
-11.1751, 7.73766, 4.33404, 0
-11.1518, 7.68543, 3.65826, 0
-11.4306, 13.037, 2.55139, 0
-11.5149, 12.9422, 3.74553, 0
-11.1648, 7.72406, 4.55496, 0
-11.2528, 13.5304, 2.53342, 0
-11.707, 6.63702, 3.70669, 0
-11.7842, 12.8187, 3.91204, 0
-11.6416, 13.0431, 3.24008, 0
-10.9203, 13.653, 3.64247, 0
-11.829, 12.9303, 3.64135, 0
-10.9255, 13.6779, 2.25403, 0
-11.743, 6.57128, 4.50582, 0
-11.712, 6.56721, 4.94192, 0
-11.8058, 6.58688, 3.86029, 0
-11.2996, 13.4166, 2.65617, 0
-11.3344, 7.10488, 4.74904, 0
-12.1522, 12.6766, 2.54785, 0
-11.5581, 6.66349, 4.26312, 0
-11.2719, 13.3641, 2.9443, 0
-11.5708, 6.68721, 3.19293, 0
-11.2893, 13.3507, 2.08523, 0
-11.5783, 6.6846, 2.98096, 0
-11.5389, 6.86635, 4.49248, 0
-11.2346, 7.16889, 4.79456, 0
-12.0531, 12.6329, 2.26561, 0
-11.208, 7.34618, 3.30775, 0
-11.2453, 7.18347, 3.86758, 0
-11.1737, 7.53466, 3.33157, 0
-11.2228, 7.61237, 3.57785, 0
-11.5031, 6.73806, 3.90006, 0
-11.9818, 12.7313, 2.5794, 0
-11.2394, 7.17393, 4.56024, 0
-11.9518, 12.7129, 2.01999, 0
-11.2434, 7.17845, 4.32793, 0
-11.1718, 7.54941, 4.24221, 0
-11.9273, 12.73, 3.02989, 0
-11.5612, 6.89514, 3.71672, 0
-11.5775, 7.04388, 2.89514, 0
-11.6416, 7.07058, 3.11438, 0
-11.5971, 7.05823, 3.78403, 0
-11.5692, 7.05625, 4.45115, 0
-11.396, 7.37034, 2.91234, 0
-11.3168, 7.36558, 4.91321, 0
-11.509, 9.66411, 2.92412, 0
-11.5971, 6.99202, 3.21773, 0
-11.6403, 13.095, 3.27182, 0
-11.5845, 13.0744, 2.98896, 0
-11.6248, 13.0832, 3.84789, 0
-11.5727, 13.0665, 3.564, 0
-11.5832, 13.084, 4.13809, 0
-11.5695, 13.0741, 4.71229, 0
-11.7131, 13.0766, 2.05818, 0
-11.6734, 13.0659, 2.35879, 0
-11.6859, 13.052, 4.40359, 0
-11.7665, 9.32349, 2.76064, 0
-11.1851, 7.36546, 3.75421, 0
-11.5414, 12.9296, 4.29919, 0
-11.5334, 12.933, 4.59195, 0
-11.4254, 13.0343, 3.99293, 0
1.03738, 19.0335, 5.30693, 0
1.1067, 19.0487, 5.20902, 0
1.03413, 19.0489, 4.95119, 0
0.90811, 18.9996, 5.95014, 0
0.903194, 19.0024, 5.63548, 0
0.648109, 19.0414, 5.6426, 0
1.09827, 19.038, 5.56873, 0
0.623389, 19.1832, 5.09555, 0
0.601292, 19.1789, 5.25457, 0
1.51938, 19.03, 5.17058, 0
1.41083, 19.0907, 5.49031, 0
1.49297, 18.9956, 5.81027, 0
0.338538, 19.2835, 5.08855, 0
0.802715, 19.1414, 5.13342, 0
0.0205064, 19.1738, 5.73585, 0
1.18678, 19.1083, 5.78688, 0
0.802338, 19.1324, 5.78812, 0
1.18716, 19.1144, 5.45866, 0
1.14748, 19.0267, 5.39414, 0
1.40434, 19.0728, 5.81464, 0
1.18749, 19.1198, 5.13299, 0
1.50617, 19.0123, 5.4892, 0
1.02813, 19.0959, 5.47813, 0
-0.0115554, 19.209, 5.42848, 0
-0.0434934, 19.271, 5.12598, 0
1.47499, 19.0584, 5.09387, 0
0.61685, 19.2015, 5.8905, 0
0.338179, 19.2134, 5.71059, 0
0.30521, 19.1858, 5.39159, 0
1.66527, 19.1422, 5.32329, 0
1.65233, 19.1137, 4.99968, 0
0.296704, 19.1392, 5.91936, 0
0.575483, 19.1401, 5.56769, 0
13.6514, -10.9834, 5.1972, 0
13.7202, -10.9407, 5.07897, 0
13.2946, -11.2897, 5.28266, 0
13.4904, -5.02482, 5.2562, 0
13.3395, -11.264, 5.00637, 0
13.444, -5.35862, 5.49551, 0
13.3986, -5.32345, 5.96518, 0
13.4197, -5.34041, 5.72952, 0
13.3593, -5.11198, 5.93094, 0
13.6725, -10.9225, 5.87766, 0
13.6533, -10.9263, 5.60787, 0
13.5089, -4.99461, 5.23025, 0
13.3974, -11.3014, 4.99583, 0
13.3921, -11.2969, 5.60071, 0
13.5191, -10.9478, 5.89034, 0
13.5195, -10.8978, 5.18714, 0
13.6929, -11.008, 5.6048, 0
13.3861, -11.2919, 5.90605, 0
13.5496, -10.9604, 4.98939, 0
13.3927, -11.2974, 5.29606, 0
13.6308, -10.9289, 5.51497, 0
13.24, -5.05365, 5.11358, 0
13.2983, -11.22, 5.88756, 0
13.2987, -11.2161, 5.58052, 0
13.3031, -11.2156, 5.27821, 0
13.237, -5.06099, 5.36702, 0
13.5298, -10.9524, 5.58758, 0
13.5379, -10.9549, 5.28652, 0
13.6519, -10.9707, 5.32234, 0
13.2575, -5.23176, 5.64833, 0
13.257, -5.24038, 5.91014, 0
13.3026, -5.28385, 5.15458, 0
13.3262, -5.30189, 5.42059, 0
13.4609, -10.946, 5.65789, 0
13.3782, -5.25687, 5.15538, 0
13.2332, -5.25158, 5.76066, 0
13.4279, -5.12913, 5.55199, 0
13.3067, -11.2145, 4.97841, 0
13.5286, -10.954, 5.87048, 0
13.1799, -11.3387, 5.55006, 0
13.2008, -11.4172, 5.85756, 0
13.4694, -17.2578, 5.72203, 0
13.3572, -17.2522, 5.11022, 0
13.3399, -17.3107, 5.80788, 0
13.3344, -17.2955, 5.4341, 0
13.5692, -17.0487, 5.10339, 0
13.3328, -17.2854, 5.06521, 0
13.6569, -17.0481, 4.96395, 0
13.137, -17.4028, 5.97036, 0
13.5596, -17.0366, 5.83435, 0
13.3534, -17.2472, 5.4752, 0
13.349, -17.2416, 5.8427, 0
13.689, -16.955, 5.71528, 0
13.7161, -16.9653, 5.3568, 0
13.3571, -17.2914, 5.33369, 0
13.6795, -16.9701, 5.88314, 0
13.6235, 9.44014, 3.04539, 0
13.5895, 10.0996, 3.46377, 0
13.5962, 9.528, 3.18266, 0
13.5817, 10.106, 3.37088, 0
13.5934, 9.76355, 2.57234, 0
13.6594, 6.88302, 4.32401, 0
13.597, 10.46, 3.6118, 0
12.9118, 13.8735, 2.66785, 0
13.5431, 12.9811, 3.40301, 0
12.6409, 14.0555, 3.91306, 0
13.531, 12.9475, 3.70332, 0
12.6568, 14.1233, 4.22926, 0
13.3302, 7.0002, 4.61676, 0
13.3257, 6.98936, 4.87236, 0
13.4697, 6.72069, 4.86492, 0
13.2533, 7.47236, 4.59181, 0
13.3138, 7.49636, 3.76832, 0
12.9615, 13.8622, 4.50041, 0
13.2135, 10.7754, 3.65293, 0
13.3241, 7.48217, 4.75831, 0
13.5169, 6.70164, 3.78343, 0
13.4107, 7.04631, 3.54228, 0
13.4164, 7.04655, 2.29718, 0
12.6385, 14.0174, 4.82803, 0
13.5645, 12.9206, 4.07518, 0
13.4154, 7.05156, 4.83275, 0
13.1796, 7.81938, 4.1574, 0
13.7332, 12.7472, 4.56263, 0
13.3337, 13.2444, 2.7233, 0
13.7511, 12.7581, 4.25424, 0
13.6982, 12.7916, 2.87852, 0
13.6729, 12.7442, 2.70718, 0
12.6497, 14.0902, 2.39608, 0
12.6839, 14.1702, 2.09565, 0
13.5474, 6.77122, 2.07011, 0
13.1493, 7.81663, 4.65559, 0
13.2212, 7.82266, 4.41191, 0
13.155, 7.81145, 3.79447, 0
13.1273, 7.75616, 3.54256, 0
13.3705, 7.03379, 3.30102, 0
13.7258, 12.6986, 4.91408, 0
13.191, 11.0322, 3.63854, 0
13.6182, 12.8133, 4.0144, 0
13.5524, 6.71724, 2.04972, 0
13.509, 6.69831, 4.29227, 0
13.505, 6.74916, 2.85582, 0
13.5388, 6.71135, 2.78615, 0
13.3611, 7.11826, 3.80009, 0
13.5567, 12.9131, 4.69961, 0
12.8643, 13.8634, 2.36626, 0
13.6563, 6.86904, 2.32179, 0
13.5671, 9.77497, 3.39297, 0
13.3653, 7.1205, 3.54686, 0
12.6432, 14.0499, 3.30297, 0
13.4992, 13.0152, 2.70528, 0
13.3691, 7.12251, 3.29525, 0
13.5486, 6.71566, 2.29441, 0
13.3467, 7.16174, 4.12991, 0
13.2948, 7.23869, 3.9746, 0
12.8858, 13.8303, 4.80233, 0
13.6827, 12.7479, 2.4062, 0
13.1822, 10.7516, 3.76607, 0
13.3653, 13.1651, 4.39393, 0
13.3704, 13.1702, 3.7718, 0
13.3754, 13.1751, 3.46426, 0
13.6693, 10.2984, 2.75698, 0
13.3817, 7.12924, 2.30293, 0
13.5625, 12.9187, 4.38694, 0
13.6476, 6.86468, 2.81885, 0
13.3589, 13.1588, 4.70685, 0
13.3882, 13.1877, 2.24692, 0
13.6339, 6.85782, 3.83085, 0
13.5869, 12.9419, 2.24353, 0
13.3679, 13.1677, 4.08187, 0
13.5833, 12.9384, 2.54544, 0
13.3846, 7.13079, 2.05782, 0
13.3503, 7.11249, 4.57226, 0
13.356, 7.11557, 4.31342, 0
13.3436, 7.10897, 4.83308, 0
13.6247, 6.85318, 4.60989, 0
13.6187, 6.85015, 4.87312, 0
12.9305, 13.8835, 2.06017, 0
13.6248, 6.85322, 4.34706, 0
13.347, 7.02574, 4.11265, 0
13.4551, 13.0649, 2.48736, 0
12.9758, 8.10083, 2.20884, 0
13.5797, 9.85504, 2.54148, 0
13.6457, 6.83715, 3.05542, 0
13.452, 13.0772, 3.40417, 0
13.6685, 10.3089, 2.4842, 0
13.4992, 6.69375, 4.54778, 0
13.6506, 12.8237, 2.79159, 0
13.4261, 13.354, 2.16298, 0
13.0103, 8.14064, 4.69143, 0
13.0102, 8.1483, 3.93984, 0
13.659, 6.8704, 2.07464, 0
12.989, 8.11295, 4.18315, 0
12.9768, 8.08319, 4.42795, 0
12.9768, 8.09028, 3.68241, 0
13.1248, 7.8375, 2.18599, 0
13.179, 7.82822, 2.67451, 0
13.2449, 13.5451, 4.81878, 0
12.9168, 13.8412, 3.92164, 0
12.8899, 13.7689, 4.21861, 0
12.9052, 13.78, 3.6103, 0
13.0893, 13.528, 4.18522, 0
13.58, 10.3947, 3.187, 0
13.1329, 13.5315, 4.4906, 0
13.0923, 13.551, 2.06593, 0
13.1917, 11.0087, 3.3263, 0
13.6601, 12.8277, 2.48948, 0
13.2117, 10.4852, 3.54913, 0
13.1667, 7.82088, 2.3208, 0
13.2912, 7.50192, 2.78784, 0
13.3238, 7.50023, 2.29706, 0
13.2209, 13.3205, 4.77396, 0
13.176, 13.5121, 2.99085, 0
13.1385, 13.5092, 2.69047, 0
13.2074, 13.5264, 2.38357, 0
13.3799, 7.45573, 4.14334, 0
13.3717, 7.46217, 2.18111, 0
13.4224, 7.4752, 2.42412, 0
13.1262, 13.5224, 3.81374, 0
13.5825, 10.4083, 3.06974, 0
13.1763, 13.5467, 3.20949, 0
13.4518, 10.5577, 2.49431, 0
13.2025, 11.0133, 3.08766, 0
13.1538, 7.79541, 2.90898, 0
13.3305, 7.48689, 2.89555, 0
13.7242, 12.8402, 4.50755, 0
13.7851, 12.8565, 3.30944, 0
13.8082, 12.8679, 3.60903, 0
13.6108, 12.9152, 3.0229, 0
13.5821, 10.4177, 2.79718, 0
13.5793, 9.43143, 2.81635, 0
13.4007, 7.13318, 2.84878, 0
13.4182, 13.1495, 3.14647, 0
13.6105, 9.47113, 2.85628, 0
13.6132, 9.49039, 2.59034, 0
13.4132, 7.10731, 3.08238, 0
13.4178, 13.1286, 2.71598, 0
13.6152, 10.1391, 2.47625, 0
13.7363, 12.8409, 4.80767, 0
13.3024, 13.2961, 3.26602, 0
13.6576, 6.84229, 4.48154, 0
13.6716, 6.75005, 3.2561, 0
13.7716, 12.7715, 3.94794, 0
13.2294, 13.3419, 2.29024, 0
13.2259, 13.3317, 3.53214, 0
13.4933, 10.1425, 2.63475, 0
13.2152, 13.291, 4.46216, 0
13.2141, 13.2666, 4.152, 0
13.6552, 6.87436, 3.5395, 0
13.3186, 7.2533, 2.23805, 0
13.6621, 6.84746, 3.7821, 0
13.3319, 7.27991, 2.48464, 0
13.3219, 7.29232, 4.47292, 0
13.2697, 13.2269, 3.92141, 0
13.3424, 7.18043, 3.40412, 0
13.3496, 7.18416, 3.64896, 0
-11.6663, 18.9932, 5.28026, 0
-11.5889, 19.0681, 5.95493, 0
-11.5546, 19.0715, 5.21072, 0
-11.3512, 19.3855, 5.12755, 0
-11.6619, 19.134, 5.82014, 0
-11.8981, 18.91, 5.34287, 0
-12.1439, 18.7353, 5.35599, 0
-11.8058, 19.0582, 5.49309, 0
-12.0309, 18.7865, 5.15105, 0
-10.8457, 19.4807, 5.03554, 0
-11.5951, 18.9893, 5.96173, 0
-11.1239, 19.3753, 5.03213, 0
-12.073, 18.7446, 5.80958, 0
-11.6048, 19.0052, 5.21548, 0
-11.347, 19.156, 5.58868, 0
-11.3535, 19.1671, 5.21764, 0
-12.3853, 18.7202, 4.96997, 0
-11.3441, 19.1511, 5.96423, 0
-11.6024, 19.0013, 5.58845, 0
-11.3442, 19.1958, 5.42188, 0
-11.2335, 19.3434, 5.01943, 0
-11.2613, 19.3643, 5.3938, 0
-11.1649, 19.3167, 5.74735, 0
-10.9167, 19.4787, 5.76446, 0
-11.0324, 19.3867, 5.80448, 0
-10.7327, 19.6232, 5.44239, 0
-11.036, 19.4026, 5.4326, 0
-12.3247, 18.674, 5.32127, 0
-12.0286, 18.8095, 5.65532, 0
-11.7449, 13.071, 5.76973, 0
-11.7556, 13.0511, 5.15351, 0
-11.5656, 13.0648, 5.37553, 0
-11.5067, 12.9532, 5.7712, 0
-11.5769, 13.0932, 5.86971, 0
-11.5718, 7.02205, 5.02756, 0
-11.5032, 6.96139, 5.6664, 0
-11.485, 6.93488, 5.43564, 0
-11.7608, 12.8024, 5.03396, 0
-11.1357, 13.384, 5.09072, 0
-11.2221, 7.36543, 5.56257, 0
-11.6342, 12.9327, 5.86657, 0
-11.8575, 12.7743, 5.49808, 0
-11.8789, 12.6821, 5.09594, 0
-11.9692, 12.5866, 5.90655, 0
-11.2234, 7.15361, 5.76224, 0
-11.1621, 7.34655, 5.13493, 0
-11.9986, 12.5947, 5.62449, 0
-11.3208, 13.1053, 5.53593, 0
-11.1252, 13.3612, 5.68681, 0
-11.4427, 7.20993, 5.49253, 0
-12.0292, 12.6042, 5.34385, 0
-11.3258, 13.111, 5.23688, 0
-11.1173, 13.3467, 5.98743, 0
-11.6404, 12.9396, 5.26089, 0
-11.3151, 13.0987, 5.8374, 0
-11.1633, 7.33764, 5.37332, 0
-11.3663, 7.20067, 5.70957, 0
-11.6402, 12.9394, 5.56368, 0
-11.8891, 12.7928, 5.20485, 0
-11.2264, 7.37033, 5.31797, 0
-10.9804, 13.4811, 5.313, 0
-10.9839, 13.5391, 5.93176, 0
-11.3983, 7.20663, 5.00641, 0
-11.2561, 7.55194, 5.76782, 0
-11.342, 7.39966, 4.98864, 0
-11.8404, 12.676, 5.37357, 0
-11.357, 7.39619, 5.45371, 0
-10.9141, 13.6226, 5.34664, 0
-11.1385, 7.67316, 5.69109, 0
-11.4053, 12.9948, 5.14723, 0
-11.1342, 7.66343, 5.92453, 0
-11.5131, 12.9477, 5.47485, 0
-11.2299, 7.37475, 5.0759, 0
-10.9114, 13.6154, 5.63617, 0
-11.5526, 6.90507, 5.3896, 0
-11.5633, 6.91937, 5.6211, 0
-11.5294, 6.67505, 5.13614, 0
-11.5228, 6.67841, 5.35805, 0
-11.6963, 6.56509, 5.16145, 0
-11.6713, 6.56464, 5.60626, 0
-11.6838, 6.56488, 5.38315, 0
-11.5449, 6.8927, 5.16133, 0
-11.516, 6.6817, 5.58158, 0
13.5683, 3.44707, 3.23185, 0
13.5829, -2.51183, 3.492, 0
13.5576, -1.68913, 2.21151, 0
13.6585, -4.93465, 2.7223, 0
13.6903, -4.92857, 3.70478, 0
13.6501, 0.751407, 2.00979, 0
13.5868, -2.50617, 3.11533, 0
13.6557, -4.938, 2.47624, 0
13.5935, -1.77717, 3.29904, 0
13.6513, -1.53824, 3.20449, 0
13.4296, 0.811469, 4.30079, 0
13.5972, 4.41086, 2.94944, 0
13.5827, -1.58951, 3.46353, 0
13.5585, -2.52374, 2.75113, 0
13.6576, -4.91613, 3.08636, 0
13.3348, 1.06839, 4.91879, 0
13.5566, -2.52102, 3.18025, 0
13.3247, 0.915163, 2.52077, 0
13.3187, 0.915237, 2.74026, 0
13.6199, 4.33206, 3.20252, 0
13.4022, 1.12602, 4.53575, 0
13.5644, 3.64052, 2.55358, 0
13.5229, -4.91622, 2.4196, 0
13.6016, 3.55847, 3.19011, 0
13.4852, -4.90251, 4.839, 0
13.6533, -2.49561, 2.82288, 0
13.3623, 0.70667, 3.59068, 0
13.415, 1.12709, 3.6072, 0
13.3704, 0.747403, 3.98224, 0
13.3165, 0.915568, 2.9618, 0
13.4558, 4.28322, 3.51676, 0
13.4184, 1.12737, 3.38006, 0
13.3318, 0.914697, 2.08423, 0
13.4331, 1.12861, 2.48738, 0
13.3828, 0.743313, 4.82516, 0
13.6185, 4.31503, 2.5267, 0
13.4406, 1.12924, 2.04862, 0
13.4067, 1.1264, 4.06664, 0
13.6525, -1.5505, 2.7981, 0
13.3093, 0.916547, 3.63562, 0
13.4111, 1.12677, 3.83603, 0
13.3006, 0.916451, 3.86196, 0
13.3932, 0.729494, 4.44647, 0
13.4644, 0.813574, 2.04877, 0
13.5601, 3.46623, 2.98962, 0
13.5755, -2.59955, 2.66894, 0
13.4622, 0.813439, 2.2679, 0
13.2969, 0.916695, 4.0916, 0
13.5736, -2.23018, 3.33507, 0
13.5187, -4.91471, 2.65419, 0
13.4425, 0.81225, 3.60847, 0
13.4388, 0.812026, 3.83743, 0
13.5008, -4.9082, 3.84918, 0
13.424, 0.811131, 4.77436, 0
13.4914, -4.90477, 4.33909, 0
13.4238, 0.811121, 4.53535, 0
13.652, -2.48409, 3.23045, 0
13.3793, 0.738363, 4.21262, 0
13.258, 0.866441, 4.48652, 0
13.5736, -2.62536, 3.09713, 0
13.3621, 0.728246, 2.25686, 0
13.4489, -4.92883, 3.68333, 0
13.5801, -1.65396, 2.73024, 0
13.3371, 1.08012, 3.54209, 0
13.3498, 1.09037, 3.32122, 0
13.3397, 1.08989, 2.21776, 0
13.566, 4.40187, 2.79889, 0
13.3969, 0.75965, 2.64616, 0
13.6558, -4.94235, 2.22946, 0
13.3469, 1.06094, 3.85001, 0
13.4886, -4.90375, 4.58793, 0
13.5816, -1.57058, 3.24758, 0
13.247, 0.876967, 4.72139, 0
13.5726, -2.5927, 3.31352, 0
13.4745, 1.13174, 2.8699, 0
13.5577, 0.830281, 3.43718, 0
13.4048, 0.643937, 3.41149, 0
13.6202, 0.617757, 2.62498, 0
13.3143, 0.915904, 3.18481, 0
13.588, -2.15281, 2.53318, 0
13.4209, 0.748539, 2.87655, 0
13.4093, 0.879024, 2.95253, 0
13.3957, 1.12547, 4.77237, 0
13.6131, 3.38693, 2.51201, 0
13.6121, 3.3754, 2.73295, 0
13.5636, 4.42146, 3.24904, 0
13.564, 3.92794, 2.56203, 0
13.5616, -1.54882, 2.85145, 0
13.5614, -1.57272, 2.63606, 0
13.5288, -4.93319, 3.35666, 0
13.5412, -4.9367, 2.9098, 0
13.5965, 3.4364, 2.88866, 0
13.6054, 4.43985, 2.52827, 0
13.4189, 1.20093, 2.74458, 0
13.5852, -1.46766, 2.50973, 0
13.6829, 19.054, 5.14114, 0
13.3117, 19.3581, 5.48561, 0
13.397, 19.3704, 5.93909, 0
13.3951, 19.3852, 5.60491, 0
13.4063, 19.3503, 5.38664, 0
13.3928, 19.4009, 5.18207, 0
13.6681, 19.1283, 5.42026, 0
13.3458, 19.363, 5.62411, 0
13.7631, 19.0658, 5.69452, 0
13.2081, 19.3242, 5.63938, 0
13.1764, 19.2925, 5.25549, 0
12.9284, 19.6038, 5.75792, 0
13.7261, 18.8692, 5.32507, 0
13.3338, 19.2255, 5.99314, 0
13.5084, 19.1105, 5.72805, 0
13.2116, 19.2676, 5.24763, 0
13.3639, 19.1806, 5.08538, 0
13.3559, 19.169, 5.86443, 0
13.8804, 18.7837, 5.13042, 0
13.7161, 18.8645, 5.71372, 0
13.6283, 19.0113, 5.47858, 0
13.625, 19.0066, 5.87014, 0
13.6314, 19.0155, 5.08963, 0
13.5436, 19.0463, 5.7615, 0
13.3601, 19.1751, 5.47365, 0
12.3689, 19.9833, 5.93287, 0
13.0455, 19.6705, 5.07138, 0
12.385, 20.1564, 5.19261, 0
12.3589, 20.0407, 5.55803, 0
12.5685, 19.8673, 5.90973, 0
12.6919, 19.7636, 5.82891, 0
12.9932, 19.5953, 5.4094, 0
12.9331, 19.5791, 5.02667, 0
12.7299, 19.6913, 5.32428, 0
12.6733, 19.8117, 5.09631, 0
13.6005, 19.0214, 2.32956, 0
13.635, 15.4439, 3.26912, 0
13.5863, 15.5181, 3.27792, 0
13.4033, 19.405, 2.99593, 0
13.3722, 19.381, 2.27585, 0
13.6921, 19.0684, 2.5763, 0
13.5879, 19.0452, 4.56112, 0
13.3519, 19.3646, 2.75422, 0
13.3559, 19.4196, 2.04497, 0
13.6396, 16.3108, 2.86837, 0
13.3485, 19.2794, 3.85355, 0
13.2259, 19.2968, 2.62913, 0
13.2354, 19.3433, 3.00202, 0
13.5633, 19.0488, 2.55791, 0
13.549, 19.0477, 2.93538, 0
13.3432, 19.2907, 2.54253, 0
13.2143, 19.4187, 2.96846, 0
13.7398, 19.0839, 4.1023, 0
6.32482, 19.2859, 2.812, 0
13.5949, 19.0463, 2.14661, 0
13.5757, 16.1527, 2.70552, 0
13.3456, 19.1915, 3.66825, 0
6.47674, 19.2076, 3.22818, 0
13.4385, 15.9309, 2.44621, 0
13.5941, 16.0528, 3.40131, 0
13.223, 19.2518, 4.08321, 0
13.2147, 19.3002, 4.46989, 0
13.6513, 19.0665, 3.69516, 0
6.35063, 19.2586, 2.51815, 0
13.3906, 15.7112, 2.45736, 0
13.5696, 16.2598, 3.75066, 0
13.1526, 19.2985, 4.93627, 0
13.1473, 19.3246, 3.39283, 0
13.1428, 19.412, 2.61753, 0
6.26796, 19.2906, 3.20784, 0
13.6249, 15.4711, 3.11536, 0
13.7373, 19.0572, 3.80167, 0
13.7304, 19.0588, 3.04649, 0
6.57925, 19.2546, 3.07355, 0
6.59127, 19.2585, 2.74214, 0
6.27757, 19.2944, 2.86835, 0
13.6012, 15.4207, 2.62394, 0
13.8873, 18.9665, 4.04371, 0
13.8749, 18.9601, 3.66878, 0
13.1404, 19.3785, 2.23237, 0
13.7117, 19.055, 4.93074, 0
13.7458, 19.058, 4.55702, 0
13.6082, 16.4199, 2.57763, 0
13.8858, 18.8189, 2.09628, 0
6.80184, 19.5384, 3.33157, 0
13.8182, 18.9252, 2.28939, 0
12.9977, 19.6325, 2.37543, 0
13.748, 18.8814, 4.55566, 0
13.7931, 18.9082, 3.03939, 0
13.4177, 19.3671, 4.56601, 0
7.62778, 19.138, 3.26688, 0
13.3872, 19.2139, 2.42374, 0
12.9964, 19.5839, 3.4079, 0
13.2196, 19.2437, 2.14647, 0
13.7358, 18.8737, 4.93884, 0
13.9654, 18.7751, 4.51786, 0
13.7573, 18.8855, 4.17358, 0
13.4077, 19.4149, 4.84694, 0
7.46357, 19.215, 3.46635, 0
13.8645, 18.9564, 3.29419, 0
13.3737, 19.4014, 4.22742, 0
7.46586, 19.2209, 3.13186, 0
13.6523, 19.0448, 2.80172, 0
5.57018, 19.6565, 3.05363, 0
12.605, 19.9171, 2.86786, 0
13.0043, 19.6364, 3.1319, 0
13.3842, 19.2097, 2.79932, 0
12.9431, 19.6107, 3.51257, 0
13.3707, 19.1903, 4.3157, 0
13.3814, 19.2056, 3.17618, 0
12.9471, 19.6092, 4.26963, 0
13.961, 18.7981, 2.63017, 0
6.82962, 19.2546, 3.23055, 0
13.0249, 19.5696, 4.53945, 0
12.5552, 19.9088, 2.49361, 0
5.8601, 19.4997, 3.42666, 0
12.6923, 19.7096, 4.67452, 0
13.7231, 19.0675, 3.40787, 0
12.7492, 19.7671, 2.68268, 0
13.6597, 19.0551, 2.0512, 0
12.7247, 19.8139, 3.8213, 0
12.9374, 19.6146, 2.00264, 0
13.5116, 19.0966, 4.94464, 0
13.5869, 15.4849, 2.82792, 0
6.44738, 19.5191, 2.91544, 0
13.3911, 19.2196, 2.04939, 0
14.0084, 18.8, 4.9061, 0
12.684, 19.7822, 3.54681, 0
13.6342, 19.0195, 4.70312, 0
13.6561, 19.05, 2.42596, 0
13.5915, 15.7815, 2.57502, 0
13.5129, 19.0892, 4.55705, 0
12.9683, 19.558, 4.91949, 0
6.96409, 19.1385, 3.55191, 0
5.81115, 19.5171, 3.18794, 0
13.991, 18.8063, 3.00701, 0
13.7324, 16.3014, 2.96894, 0
13.3739, 19.1948, 3.93397, 0
13.5285, 19.0752, 3.03235, 0
6.96059, 19.2597, 2.68589, 0
12.978, 19.5956, 3.93112, 0
12.3606, 20.116, 4.42034, 0
12.3539, 20.1031, 3.65813, 0
12.3392, 20.0044, 3.27036, 0
12.7528, 19.6958, 2.30243, 0
12.3127, 20.1055, 2.52619, 0
13.3967, 19.3528, 3.96518, 0
7.46802, 19.2264, 2.79873, 0
6.83463, 19.5452, 2.99488, 0
13.4389, 19.3968, 3.33494, 0
12.5845, 19.891, 4.38107, 0
13.4145, 16.5052, 3.45434, 0
13.1455, 19.4103, 4.55173, 0
7.18038, 19.3023, 3.22619, 0
7.06161, 19.2575, 3.45743, 0
13.1864, 19.4128, 4.87724, 0
12.6205, 19.9372, 2.11291, 0
5.89118, 19.5065, 3.09516, 0
7.26714, 19.2699, 2.56701, 0
13.6261, 16.369, 3.10212, 0
13.0691, 19.6281, 3.78497, 0
6.88763, 19.5235, 3.53712, 0
12.3236, 20.0475, 2.14456, 0
13.0402, 19.676, 4.65437, 0
7.40576, 19.2667, 2.53162, 0
13.4323, 19.3874, 3.74564, 0
12.6785, 19.7647, 4.30274, 0
13.0077, 16.9008, 3.21947, 0
12.7571, 19.8565, 3.06489, 0
12.7323, 19.7493, 3.43773, 0
13.5557, 16.4375, 3.27725, 0
13.2799, 19.368, 4.1303, 0
7.31838, 19.2653, 3.08235, 0
13.613, 19.0396, 3.97775, 0
6.47204, 19.705, 3.31033, 0
13.0121, 16.9716, 3.5674, 0
13.3293, 19.3714, 3.19795, 0
13.444, 16.483, 2.45925, 0
13.7307, 16.3106, 2.62843, 0
13.3769, 19.1991, 3.55407, 0
7.78068, 19.0796, 3.06952, 0
13.6391, 19.0263, 4.31958, 0
12.9642, 16.9591, 3.7545, 0
13.6147, 19.0284, 3.59618, 0
6.50998, 19.7135, 2.97469, 0
12.9671, 16.9962, 3.41459, 0
13.614, 19.0141, 3.21608, 0
12.9699, 17.0333, 3.07366, 0
1.19457, -17.2918, 5.27557, 0
1.23039, -17.2866, 5.77139, 0
1.18083, -17.2639, 5.1881, 0
1.17747, -17.1038, 5.48042, 0
1.17742, -17.1031, 5.78157, 0
0.793063, -17.272, 5.53124, 0
1.17792, -17.1103, 5.18407, 0
1.37042, -17.1193, 5.48389, 0
0.781121, -17.3455, 5.65558, 0
0.893557, -17.2606, 5.20625, 0
0.744807, -17.2927, 5.4376, 0
0.833475, -17.1301, 5.48238, 0
0.833171, -17.1239, 5.78175, 0
0.83342, -17.129, 5.1836, 0
1.37678, -17.1312, 5.19533, 0
0.840998, -17.1066, 5.85642, 0
-11.5472, -1.54228, 2.53148, 0
-11.6026, -2.55916, 2.5454, 0
-11.5548, 1.01804, 2.11525, 0
-11.5573, 1.02034, 2.30122, 0
-11.5521, 1.35948, 3.70512, 0
-11.5365, -1.58102, 2.84257, 0
-11.6464, 3.55146, 2.4935, 0
-11.5455, -1.58087, 3.27814, 0
-11.5557, 0.592417, 2.74777, 0
-11.4585, 0.953725, 2.65181, 0
-11.6113, 3.88141, 3.62532, 0
-11.6472, 3.97002, 2.77863, 0
-11.6255, 3.58437, 2.72425, 0
-11.5014, 0.590633, 2.0989, 0
-11.5904, 3.67344, 3.02706, 0
-11.5318, 0.577418, 2.827, 0
-11.5864, 3.64597, 3.45412, 0
-11.5223, -2.5476, 3.24451, 0
-11.5781, 0.696053, 3.77785, 0
-11.6613, 0.731209, 2.12863, 0
-11.6208, 0.713728, 2.48951, 0
-11.4668, 1.00752, 4.07309, 0
-11.5703, -1.59866, 3.46455, 0
-11.4305, 0.957873, 4.49423, 0
-11.5472, 3.42454, 3.34448, 0
-11.6566, -1.44271, 2.74524, 0
-11.5109, 0.980761, 3.57389, 0
-11.6972, -1.36521, 3.006, 0
-11.5201, -2.56911, 3.46172, 0
-11.5162, 1.80701, 4.83517, 0
-11.4521, 1.57918, 4.92028, 0
-11.4863, 1.60122, 4.5262, 0
-11.5519, 1.63974, 2.04646, 0
-11.5369, -1.60699, 2.88158, 0
-11.5613, 1.2318, 4.51676, 0
-11.5984, 1.23084, 3.73251, 0
-11.5421, -1.78559, 2.77663, 0
-11.5048, 1.26796, 2.57284, 0
-11.58, 4.19495, 3.46074, 0
-11.586, 1.25439, 2.21202, 0
-11.4571, 1.57612, 4.1153, 0
-11.8475, -4.35424, 4.38795, 0
-11.6851, -4.45975, 4.13598, 0
-11.5371, -2.57379, 3.33871, 0
-11.6763, 4.29345, 2.46496, 0
-11.5117, -4.89885, 2.72154, 0
-11.567, -1.90216, 3.50331, 0
-11.6155, 0.374144, 2.4715, 0
-11.5235, 0.621639, 4.26174, 0
-11.4443, 0.807148, 2.30573, 0
-11.6092, 3.99945, 3.31813, 0
-11.5683, 0.416306, 4.1053, 0
-11.4421, 1.15482, 3.87837, 0
-11.5761, 0.875557, 4.37663, 0
-11.529, -2.11742, 3.45873, 0
-11.8689, -4.35578, 4.17942, 0
-11.5817, 0.402207, 4.72326, 0
-11.4055, 0.804412, 4.683, 0
-11.4402, 1.40198, 2.16983, 0
-11.6291, 4.5658, 2.85388, 0
-11.6189, 0.721075, 4.16874, 0
-11.576, 0.362072, 4.52121, 0
-11.9263, -4.36437, 3.7697, 0
-11.4683, 1.15747, 2.31654, 0
-11.6865, 4.24212, 3.2838, 0
-11.4396, 1.15457, 4.08182, 0
-11.4478, 0.807394, 2.11758, 0
-11.4798, 0.578797, 4.48884, 0
-11.7009, -2.32913, 3.31848, 0
-11.4485, 1.15547, 3.47805, 0
-11.6274, 3.88427, 2.54681, 0
-11.6051, 0.416844, 2.55945, 0
-11.538, -4.90326, 4.14614, 0
-11.5551, -1.73972, 3.43592, 0
-11.5631, 0.694018, 4.73337, 0
-11.6902, -1.37908, 3.19797, 0
-11.4204, 0.805461, 3.86102, 0
-11.7008, 4.25807, 2.65606, 0
-11.4524, 1.15587, 3.28085, 0
-11.4703, 1.15767, 2.12724, 0
-11.5938, 4.29744, 2.95898, 0
-11.4357, 1.05577, 4.52972, 0
-11.4317, 1.05533, 4.73907, 0
-11.5982, 0.711967, 4.35541, 0
-11.4159, 1.39808, 3.31819, 0
-11.6105, 4.43529, 2.54024, 0
-11.414, 1.3977, 3.51536, 0
-11.435, 1.40119, 2.35791, 0
-11.5685, 4.64959, 3.26269, 0
-11.4055, 1.39635, 3.91377, 0
-11.6217, 4.53014, 2.60708, 0
-11.5469, 0.62289, 2.29706, 0
-11.5839, 3.66025, 3.2263, 0
-11.5982, -1.91744, 2.68671, 0
-11.6014, 0.425575, 2.18341, 0
-11.5151, -4.9003, 2.51508, 0
-11.436, 0.622839, 4.02257, 0
-11.4589, 0.59271, 3.73707, 0
-11.5486, 0.685161, 4.9251, 0
-11.5456, -4.85803, 3.82965, 0
-11.9003, -4.3553, 2.32072, 0
-11.5472, -2.57708, 2.80468, 0
-11.6213, -1.66537, 2.54255, 0
-11.6674, -1.32682, 3.19283, 0
-11.6597, -4.68253, 4.8342, 0
-11.6969, -2.33441, 2.94727, 0
-11.5014, 0.640492, 3.10969, 0
-11.6047, 0.963944, 2.92482, 0
-11.578, 0.970896, 2.73651, 0
-11.5384, 0.986674, 3.11956, 0
-11.5565, 0.979416, 4.06456, 0
-11.5425, -1.97738, 3.40461, 0
-11.5683, 1.34116, 2.5608, 0
-11.504, 1.31206, 2.94612, 0
-11.5613, 4.63508, 3.46669, 0
-11.6944, -2.34176, 3.51172, 0
-11.7118, -2.09812, 2.94712, 0
-11.6452, 0.919428, 3.18916, 0
-11.6083, 0.929621, 3.95817, 0
-11.5784, 0.939938, 4.72397, 0
-11.5408, -2.70134, 2.92084, 0
-11.5736, 1.27737, 2.25577, 0
-11.5535, 1.28761, 3.03206, 0
-11.5455, 0.892794, 3.22327, 0
-11.6038, -4.84077, 2.02236, 0
-11.5549, -4.85163, 2.63145, 0
-11.5961, -4.84793, 3.23125, 0
-11.5591, -4.85358, 3.63069, 0
-11.6182, -4.84625, 3.03032, 0
-11.5642, 0.420908, 3.9041, 0
-11.5493, -4.86015, 4.83037, 0
-11.6168, -4.85545, 4.23311, 0
-11.5685, -4.85748, 4.63119, 0
-11.5617, 0.578344, 3.49649, 0
-11.5438, -2.4897, 2.6456, 0
-11.5902, 0.570702, 3.3073, 0
-11.5607, 0.956293, 3.66415, 0
-11.5437, -2.18756, 2.653, 0
-11.5322, -1.83133, 3.45164, 0
-11.6952, 3.26726, 2.73071, 0
-11.6791, 3.28656, 3.13529, 0
-11.6411, -2.57441, 2.69426, 0
-11.5754, -4.90317, 3.83931, 0
-11.6417, -4.91665, 2.26143, 0
-11.6191, -2.4756, 2.74469, 0
-11.5399, 0.593304, 3.34465, 0
-11.5525, 0.585165, 2.98135, 0
-11.57, -2.1157, 3.50894, 0
-11.6265, -1.98493, 2.50391, 0
-11.6778, 3.35355, 3.35443, 0
-11.5675, 1.11677, 3.44748, 0
-11.5511, 1.11262, 3.98543, 0
-11.5694, 1.12481, 4.34761, 0
-11.5821, 3.43462, 2.50289, 0
-11.5471, -1.86926, 3.31456, 0
-11.6268, -2.56749, 2.85491, 0
-11.56, -2.56076, 3.27994, 0
-11.5712, -2.13738, 2.55871, 0
-11.5593, -2.56159, 3.45665, 0
-11.4837, -4.88693, 4.43063, 0
-11.608, -2.14465, 3.28116, 0
-11.6621, -2.26497, 2.54564, 0
-11.5455, 3.42932, 2.71369, 0
-11.5456, 3.86809, 3.37503, 0
-11.6602, -1.5431, 2.53837, 0
-11.544, 3.42758, 2.88981, 0
-11.3731, 1.36379, 5.28316, 0
-11.6499, -4.49158, 5.66111, 0
-11.5072, 0.620762, 5.5435, 0
-11.3675, 1.39017, 5.82432, 0
-11.4126, 1.05317, 5.8291, 0
-11.6733, -4.44418, 5.21451, 0
-11.534, -4.90988, 5.6867, 0
-11.4729, -4.88233, 5.33932, 0
-11.6391, 0.330892, 5.33186, 0
-11.6436, -4.49595, 5.8885, 0
-11.3942, 0.803614, 5.5487, 0
-11.4309, 1.05518, 4.95246, 0
-11.3852, 0.802979, 5.99913, 0
-11.5748, 0.341276, 5.92623, 0
-11.3883, 0.803198, 5.77148, 0
-11.4221, 1.0542, 5.38469, 0
-11.5193, 1.61774, 5.15721, 0
-11.4571, 1.77218, 5.41964, 0
-11.4015, 0.945672, 5.06029, 0
-11.5103, 1.80168, 5.86006, 0
-11.4201, 0.586699, 5.83564, 0
-11.4151, 0.598159, 5.24158, 0
-11.5359, -4.86474, 5.03029, 0
-11.6573, -4.66545, 5.44707, 0
-11.562, 0.950591, 5.49502, 0
-11.5502, 0.880929, 4.95672, 0
-11.5839, 0.86834, 5.74219, 0
-11.5583, -4.86497, 5.84823, 0
-11.5718, 0.564001, 5.80976, 0
-11.5674, 0.566598, 5.22067, 0
-11.5818, -4.88813, 5.22506, 0
-11.6114, 0.338492, 5.12145, 0
-11.5843, 0.711163, 5.41078, 0
13.6131, -7.94823, 3.56919, 0
13.6214, -8.56509, 2.9343, 0
13.654, -7.55484, 3.32815, 0
13.6545, -7.56218, 2.90523, 0
13.651, -13.5784, 3.25124, 0
13.6053, -13.6508, 3.06482, 0
13.5862, -14.5544, 3.48427, 0
13.6489, -7.77205, 2.94081, 0
13.6508, -4.97869, 2.18723, 0
13.6779, -4.97114, 2.66898, 0
13.6715, -13.4844, 2.69511, 0
13.6938, -10.951, 4.21079, 0
13.6334, -10.9453, 3.93426, 0
13.6755, -10.9444, 3.65438, 0
13.6586, -10.9467, 2.54459, 0
13.4341, -11.2949, 3.37011, 0
13.6982, -11.0407, 3.88299, 0
13.691, -10.9373, 4.81099, 0
13.6672, -10.9376, 4.54502, 0
13.5907, -14.5658, 2.82173, 0
13.6538, -11.0561, 3.52886, 0
13.5829, -8.56266, 2.69622, 0
13.5816, -7.82889, 2.5669, 0
13.6791, -11.0253, 4.78164, 0
13.5704, -8.40792, 2.69631, 0
13.5375, -13.6639, 2.78402, 0
13.3776, -11.4021, 2.9493, 0
13.4416, -5.37872, 2.68713, 0
13.3951, -5.32577, 2.9171, 0
13.5173, -5.02215, 2.93569, 0
13.6788, -11.0237, 3.39407, 0
13.487, -14.581, 2.95388, 0
13.4993, -8.63319, 3.16684, 0
13.519, -14.5514, 3.36655, 0
13.3244, -11.322, 3.38536, 0
13.3288, -11.3343, 2.55496, 0
13.4309, -5.33781, 4.5428, 0
13.4401, -5.33244, 3.38182, 0
13.3129, -11.2034, 3.8013, 0
13.3057, -11.2095, 4.67964, 0
13.3107, -11.2056, 4.09194, 0
13.6747, -11.0516, 4.64119, 0
13.5737, -7.53861, 2.81154, 0
13.3824, -11.3184, 2.39077, 0
13.3487, -11.292, 2.46546, 0
13.346, -5.24621, 3.41617, 0
13.547, -8.15932, 3.42191, 0
13.6719, -11.0929, 2.47104, 0
13.3437, -5.24952, 4.14747, 0
13.4202, -5.23863, 2.18812, 0
13.5211, -14.4993, 3.04763, 0
13.3312, -11.2759, 3.89452, 0
13.6107, -14.0625, 3.60042, 0
13.3084, -11.2077, 4.3847, 0
13.3309, -11.2623, 2.17958, 0
13.4338, -11.3321, 2.10135, 0
13.6046, -13.5693, 3.50621, 0
13.5899, -13.6063, 3.3652, 0
13.4015, -11.3049, 4.6979, 0
13.4051, -11.3079, 4.40217, 0
13.5683, -10.9861, 2.65166, 0
13.593, -13.5416, 2.85228, 0
13.3158, -11.2019, 3.51282, 0
13.386, -5.22526, 4.59349, 0
13.4028, -5.23183, 3.3698, 0
13.5444, -10.9667, 4.66969, 0
13.6676, -14.4718, 3.05625, 0
13.4114, -11.3132, 3.81684, 0
13.5666, -10.9847, 2.93539, 0
13.3893, -5.22654, 4.3445, 0
13.4012, -5.2312, 3.61109, 0
13.6662, -14.451, 3.3553, 0
13.4084, -11.3107, 4.10853, 0
13.4159, -5.23692, 2.42177, 0
13.5595, -14.515, 3.31563, 0
13.2551, -11.4676, 4.14293, 0
13.3944, -5.22855, 3.85277, 0
13.5762, -10.9925, 2.08862, 0
13.36, -11.366, 2.67966, 0
13.6853, -14.3923, 2.74313, 0
13.4173, -11.3182, 3.52781, 0
13.5897, -14.3839, 2.66854, 0
13.192, -11.3644, 3.56425, 0
13.5495, -10.9709, 4.08331, 0
13.4144, -5.32299, 4.77415, 0
13.5471, -10.9689, 4.37543, 0
13.5724, -10.9894, 2.36964, 0
13.5806, -13.578, 2.77607, 0
13.6294, -8.16767, 3.90314, 0
13.6737, -10.9782, 2.96327, 0
13.2482, -5.04841, 4.86465, 0
13.2923, -5.2712, 4.89686, 0
13.647, -7.96763, 3.13876, 0
13.6722, -11.1366, 2.14681, 0
13.2749, -5.23088, 3.90106, 0
13.5901, -8.52357, 3.52039, 0
13.2833, -5.25917, 4.6426, 0
13.2735, -5.22211, 3.65865, 0
13.3103, -5.24777, 2.48119, 0
13.3052, -5.23782, 2.24671, 0
13.5526, -8.2786, 2.27419, 0
13.3456, -5.29393, 3.43776, 0
13.5695, -7.57688, 3.5249, 0
13.4899, -10.9541, 3.89206, 0
13.3087, -11.2271, 3.3099, 0
13.5886, -10.9034, 4.32303, 0
13.5643, -10.9004, 4.60927, 0
13.5582, -10.8999, 2.04314, 0
13.2989, -5.00554, 2.71769, 0
13.6491, -10.9293, 2.61565, 0
13.5399, -10.901, 2.32183, 0
13.6534, -10.9809, 2.70048, 0
13.3404, -5.24964, 4.39467, 0
13.3821, -5.22373, 4.84467, 0
13.4282, -5.31967, 3.61113, 0
13.3725, -11.2019, 3.44564, 0
13.6535, -13.988, 2.79676, 0
13.3929, -11.235, 3.73778, 0
13.2672, -5.02456, 3.03342, 0
13.5908, -7.57596, 3.1663, 0
13.3652, -5.51113, 4.12711, 0
13.416, -5.30675, 3.8405, 0
13.5746, -8.47721, 3.30341, 0
13.2592, -5.26652, 4.33127, 0
13.5677, -8.53291, 3.1096, 0
13.2797, -5.42698, 3.87522, 0
13.596, -7.61205, 2.85044, 0
13.3122, -5.44613, 2.4879, 0
13.624, -14.5039, 3.98154, 0
13.2065, -11.4004, 4.70007, 0
13.4863, -14.5081, 3.5755, 0
13.2226, -11.427, 4.41992, 0
13.6027, -5.01108, 2.68058, 0
13.4221, -5.31521, 2.23243, 0
13.4147, -5.30429, 2.46136, 0
13.2863, 7.23611, 5.72297, 0
13.2969, 7.26143, 5.97946, 0
13.4096, 7.1218, 5.98956, 0
13.4013, 13.1038, 5.85909, 0
13.6521, 6.7553, 5.42828, 0
13.2093, 13.2566, 5.3944, 0
13.2101, 13.2808, 5.70872, 0
13.14, 13.489, 5.11596, 0
13.1928, 13.5068, 5.42735, 0
13.1189, 13.4819, 5.72895, 0
13.3792, 7.49135, 5.77668, 0
13.2941, 7.48281, 5.25666, 0
13.3317, 6.95298, 5.86409, 0
13.3418, 7.10801, 5.09817, 0
13.4178, 7.05395, 5.36569, 0
13.3536, 7.0424, 5.10883, 0
13.2654, 13.2015, 5.1712, 0
13.6889, 12.7231, 5.50145, 0
13.5511, 12.9078, 5.33426, 0
13.5436, 12.9007, 5.97916, 0
12.9792, 8.06593, 5.95452, 0
13.6187, 12.7413, 5.3321, 0
13.5476, 12.9045, 5.65537, 0
13.3554, 13.1554, 5.02311, 0
13.3515, 13.1516, 5.34174, 0
13.3513, 13.1514, 5.66465, 0
13.6772, 12.7179, 5.8199, 0
13.736, 12.8528, 4.98692, 0
13.3464, 13.1465, 5.98855, 0
13.0098, 8.13103, 5.45447, 0
13.4133, 7.14152, 5.72172, 0
13.4169, 7.0529, 5.09797, 0
13.1357, 7.58277, 5.00368, 0
13.6987, 12.8284, 5.61866, 0
13.7141, 12.8375, 5.30048, 0
13.6797, 12.8159, 5.93772, 0
13.5541, 12.9106, 5.01571, 0
13.4889, 6.68923, 5.06801, 0
13.2447, 7.82123, 5.95138, 0
13.173, 7.83153, 5.80452, 0
13.2274, 7.81953, 5.17266, 0
13.6262, 12.7322, 5.96862, 0
13.1523, 7.8109, 5.41678, 0
12.9893, 8.09531, 5.70262, 0
12.9786, 8.07583, 5.18432, 0
13.7518, 12.6997, 5.22956, 0
12.9333, 13.8452, 5.74232, 0
12.692, 14.1259, 5.1595, 0
12.8774, 13.8278, 5.42241, 0
12.9473, 13.8541, 5.11875, 0
13.3137, 7.29758, 5.47591, 0
13.6044, 6.84294, 5.9568, 0
13.61, 6.84578, 5.40851, 0
13.6076, 6.84457, 5.68125, 0
13.4929, 6.70575, 5.65729, 0
13.4855, 6.71098, 5.39062, 0
13.1316, 7.57649, 5.75555, 0
13.4756, 1.06655, 5.74912, 0
13.572, 1.11695, 5.99074, 0
13.6594, -4.93914, 5.31239, 0
13.41, 0.810286, 5.75296, 0
13.3426, 0.716393, 5.43411, 0
13.3722, 0.74416, 5.55545, 0
13.4131, 0.810474, 5.50367, 0
13.3951, 1.12542, 5.01372, 0
13.5156, 0.445557, 5.44149, 0
13.3725, 0.734345, 5.38481, 0
13.476, -4.89919, 5.34815, 0
13.3578, 0.743495, 5.14124, 0
13.4165, 0.810679, 5.01322, 0
13.477, -4.89955, 5.60929, 0
13.3463, 1.05759, 5.06006, 0
13.347, 1.05879, 5.55247, 0
13.347, 1.05821, 5.30486, 0
13.4701, -4.89702, 5.87026, 0
13.3282, 1.03763, 5.47389, 0
13.3489, 1.04654, 4.99639, 0
13.3219, 1.03342, 5.71805, 0
13.3147, 1.0291, 5.96476, 0
13.3646, 1.09651, 5.40707, 0
13.336, -4.89571, 5.93316, 0
13.3835, 0.696003, 5.92393, 0
13.481, -4.90101, 5.09239, 0
6.94046, -17.3413, 2.85906, 0
6.84584, -17.3493, 3.71488, 0
6.90608, -17.3365, 2.63685, 0
7.15196, -17.3408, 3.82323, 0
6.5454, -17.35, 3.79139, 0
6.45819, -17.3221, 2.46429, 0
6.80219, -17.3534, 3.23262, 0
13.4255, -17.3173, 4.77879, 0
13.4075, -17.2543, 3.34058, 0
13.7297, -17.0842, 3.31999, 0
6.49919, -17.2824, 3.33356, 0
13.2785, -17.368, 2.43523, 0
6.5036, -17.2752, 3.49197, 0
6.49968, -17.2808, 2.9075, 0
6.61773, -17.2383, 3.68413, 0
7.29029, -17.291, 2.82517, 0
7.46747, -17.3416, 2.81922, 0
13.338, -17.4335, 3.28894, 0
7.26862, -17.2949, 2.5202, 0
6.53756, -17.2458, 3.37267, 0
6.53628, -17.2518, 2.78675, 0
6.59981, -17.2487, 2.78035, 0
13.3607, -17.2824, 4.62883, 0
13.3733, -17.3492, 4.2869, 0
13.3664, -17.2749, 3.92895, 0
13.3789, -17.3076, 2.19285, 0
6.37689, -17.2472, 3.29834, 0
6.41947, -17.2507, 3.00231, 0
7.343, -17.2629, 2.95978, 0
7.50461, -17.3478, 3.93814, 0
13.1558, -17.4346, 4.55222, 0
13.1759, -17.4369, 2.10338, 0
13.1684, -17.3674, 2.79562, 0
7.42383, -17.231, 3.04886, 0
13.5704, -17.0531, 2.21084, 0
13.3339, -17.2786, 4.70018, 0
13.6249, -17.05, 4.34361, 0
13.692, -17.1032, 2.92909, 0
13.3818, -17.2839, 2.61354, 0
7.49578, -17.2093, 3.15789, 0
13.5744, -17.0552, 4.38082, 0
13.3382, -17.2683, 3.97848, 0
7.44732, -17.2589, 3.16089, 0
13.3845, -17.2875, 2.26285, 0
13.7179, -17.0058, 2.68876, 0
13.6521, -17.1097, 3.55378, 0
13.335, -17.2721, 4.33783, 0
7.44644, -17.2569, 3.46801, 0
13.3466, -17.2555, 2.91191, 0
13.5956, -17.0818, 2.2596, 0
13.3775, -17.2784, 2.96508, 0
13.5719, -17.0521, 4.74095, 0
13.7043, -17.0467, 4.69553, 0
13.6897, -16.9619, 2.15689, 0
7.44932, -17.2635, 2.85577, 0
13.3392, -17.2616, 3.62062, 0
13.5942, -17.0122, 3.87034, 0
13.5896, -17.0743, 2.96106, 0
7.51793, -17.1576, 2.8188, 0
7.47892, -17.2048, 3.46207, 0
13.3491, -17.1945, 4.21242, 0
13.6467, -16.9493, 4.62263, 0
13.3488, -17.2446, 4.93973, 0
13.6986, -17.265, 3.54179, 0
13.3454, -17.2149, 4.57352, 0
13.3655, -17.2834, 3.50992, 0
13.6916, -16.9597, 3.91642, 0
13.4526, -17.1947, 3.19917, 0
13.6673, -16.9522, 4.26845, 0
13.4638, -17.2312, 3.55651, 0
13.722, -17.0095, 2.33883, 0
13.6956, -16.9847, 4.44944, 0
13.3866, -17.1696, 2.68303, 0
-11.6171, -4.96117, 5.16942, 0
-11.2944, -5.34698, 5.67415, 0
-11.2989, -5.34877, 5.44488, 0
-11.3665, -5.56233, 5.97987, 0
-11.3955, -5.57581, 5.0606, 0
-11.3307, -5.14262, 5.79131, 0
-11.369, -5.56334, 5.74358, 0
-11.1992, -11.4629, 4.96373, 0
-11.3376, -11.243, 5.1041, 0
-11.2915, -11.2753, 5.7429, 0
-11.2957, -11.2853, 5.46289, 0
-11.2945, -11.2899, 5.1831, 0
-11.3362, -11.2416, 5.3841, 0
-11.3317, -11.2372, 5.95232, 0
-11.299, -5.34842, 5.21649, 0
-11.3367, -5.15259, 5.09327, 0
-11.383, -5.56985, 5.28411, 0
-11.1796, -11.2319, 5.62241, 0
-11.4666, -5.20401, 5.2523, 0
-11.1152, -11.6233, 5.19711, 0
-11.1127, -11.6297, 5.47123, 0
-11.1152, -11.5154, 5.48822, 0
-11.1222, -11.5455, 5.76471, 0
-11.5985, -10.974, 5.10418, 0
-11.5942, -10.9699, 5.66647, 0
-11.5966, -10.9722, 5.38399, 0
-11.2447, -5.39854, 5.92222, 0
-11.1835, -11.2678, 5.89296, 0
-11.2429, -5.31295, 5.40865, 0
-11.6142, -4.96272, 5.36916, 0
-11.5659, -4.95108, 5.83519, 0
-11.2213, -5.15226, 5.18538, 0
-11.2078, -5.14448, 5.81366, 0
-11.5857, -11.054, 5.96352, 0
-11.4809, -11.082, 5.72432, 0
-11.2465, -5.31951, 5.1417, 0
-11.569, -5.13823, 5.99568, 0
0.748637, -17.2858, 2.12289, 0
0.717159, -17.2772, 2.82386, 0
0.736466, -17.2522, 3.11532, 0
0.726992, -17.2838, 3.69063, 0
0.737118, -17.2937, 4.56099, 0
0.745128, -17.3042, 2.26143, 0
-4.67961, -17.3327, 3.90131, 0
0.850835, -17.27, 4.5233, 0
0.791006, -17.2571, 3.97191, 0
0.791597, -17.2649, 4.71572, 0
1.18375, -17.3226, 4.48013, 0
-4.51326, -17.3994, 2.77965, 0
1.22883, -17.2742, 3.39427, 0
0.843447, -17.2855, 2.37708, 0
1.21883, -17.2875, 2.65825, 0
1.23918, -17.3182, 4.78152, 0
1.17446, -17.3267, 4.2422, 0
-4.41148, -17.3962, 3.5418, 0
-4.64361, -17.3029, 2.40487, 0
1.27377, -17.2833, 3.08705, 0
0.780343, -17.3621, 2.02043, 0
-4.93604, -17.3632, 2.88839, 0
0.790992, -17.3231, 3.64525, 0
0.804278, -17.2665, 3.10904, 0
1.38304, -17.1423, 4.9085, 0
1.17569, -17.1003, 3.24461, 0
0.835979, -17.1816, 2.05674, 0
1.38976, -17.1588, 4.62468, 0
0.83546, -17.1709, 2.61109, 0
1.18528, -17.2879, 3.65703, 0
-4.46628, -17.2592, 2.98194, 0
1.17921, -17.1291, 4.02137, 0
0.834933, -17.1601, 3.45283, 0
1.17831, -17.116, 4.8901, 0
1.17865, -17.1209, 4.59839, 0
1.17946, -17.1327, 3.73581, 0
-4.8328, -17.3377, 2.78062, 0
0.811942, -17.2522, 3.34135, 0
0.834452, -17.1502, 4.02155, 0
1.181, -17.1552, 2.33329, 0
1.17895, -17.1253, 4.30885, 0
0.83414, -17.1438, 4.5991, 0
1.24156, -17.0962, 3.07977, 0
0.811779, -17.2737, 2.79646, 0
0.939238, -17.1111, 4.32716, 0
1.18139, -17.1607, 2.05667, 0
0.938953, -17.1161, 3.39003, 0
0.851476, -17.1733, 2.40739, 0
1.3554, -17.1253, 3.20618, 0
1.35001, -17.1163, 2.54959, 0
1.17652, -17.305, 2.03633, 0
1.26964, -17.1533, 2.80582, 0
0.909318, -17.1687, 3.12345, 0
1.26944, -17.2592, 3.89281, 0
-4.37395, -17.2691, 3.2531, 0
0.834734, -17.2946, 4.22215, 0
-4.70036, -17.2658, 3.58071, 0
0.726555, -17.2443, 2.2498, 0
1.40755, -17.2397, 4.07032, 0
0.833655, -17.1338, 4.88941, 0
-4.33598, -17.3124, 3.3567, 0
1.167, -17.2729, 2.31016, 0
-11.7561, -17.2816, 4.56286, 0
-11.4228, -17.5583, 2.09207, 0
-11.2584, -17.5579, 3.29866, 0
-11.2879, -17.611, 2.30677, 0
-11.2725, -17.585, 2.63925, 0
-11.5007, -17.2733, 3.19459, 0
-5.19575, -17.3294, 2.6527, 0
-11.4099, -17.2229, 2.86577, 0
-11.5189, -17.1612, 2.44866, 0
-11.4932, -17.1153, 2.68335, 0
-11.4888, -17.1214, 2.02792, 0
-11.2219, -17.2477, 2.97961, 0
-5.38887, -17.2135, 3.50098, 0
-5.38758, -17.2228, 2.92487, 0
-5.35763, -17.2187, 3.20906, 0
-11.0097, -17.4869, 4.41315, 0
-11.4688, -17.1682, 3.55584, 0
-5.18543, -17.34, 3.18147, 0
-11.5112, -17.1171, 4.00134, 0
-5.17012, -17.3363, 3.46978, 0
-11.7824, -17.2665, 4.23061, 0
-11.0083, -17.6172, 3.33395, 0
-5.55931, -17.3668, 2.80767, 0
-5.55066, -17.3593, 3.52225, 0
-11.2754, -17.3522, 2.97564, 0
-11.6615, -17.1013, 2.47486, 0
-11.59, -17.175, 3.4347, 0
-11.2316, -17.2754, 2.32541, 0
-5.46674, -17.2571, 3.04404, 0
-11.3452, -17.2519, 4.49171, 0
-11.2054, -17.2657, 3.96345, 0
-11.6413, -17.0717, 4.83957, 0
-11.2694, -17.2906, 4.65866, 0
-5.48218, -17.3338, 3.77174, 0
-11.0217, -17.5314, 3.42228, 0
-11.6459, -17.0785, 4.1544, 0
-11.3473, -17.2551, 4.15052, 0
-11.7693, -17.2835, 3.73978, 0
-11.3525, -17.263, 3.8124, 0
-5.55321, -17.3106, 3.03462, 0
-11.3623, -17.2779, 2.4725, 0
-11.3543, -17.2657, 3.47492, 0
-11.7165, -17.2657, 4.718, 0
-10.9983, -17.6178, 4.00172, 0
-10.9931, -17.6177, 4.33778, 0
-11.1998, -17.2453, 4.62363, 0
-11.2779, -17.3665, 2.6435, 0
-11.4793, -17.2348, 4.17717, 0
-10.988, -17.6181, 4.67567, 0
-5.25957, -17.3518, 2.8104, 0
-11.5719, -17.1768, 2.97194, 0
-11.8514, -17.2709, 2.24364, 0
-11.1265, -17.4386, 4.32964, 0
-11.6436, -17.0752, 4.49589, 0
-11.1286, -17.4719, 3.65936, 0
-11.1219, -17.5437, 4.69005, 0
-11.6622, -17.2091, 3.4928, 0
-5.46555, -17.2533, 3.33948, 0
-11.1368, -17.5293, 2.66377, 0
-11.6494, -17.1983, 3.82038, 0
-5.37545, -17.2771, 3.51165, 0
-11.1329, -17.5082, 2.9945, 0
-11.7032, -17.2639, 3.3897, 0
-11.1442, -17.5558, 2.33421, 0
-11.72, -17.2831, 3.06758, 0
-11.1624, -17.5995, 2.00643, 0
-11.6654, -17.1071, 2.14306, 0
-11.6595, -17.0985, 2.80816, 0
-11.3712, -17.236, 3.40261, 0
-5.15359, -17.398, 2.981, 0
-11.7967, -17.2671, 4.01839, 0
-11.0131, -17.6166, 3.00194, 0
-11.6222, -17.2563, 2.67208, 0
-11.4127, -17.1494, 4.53514, 0
-11.7099, -17.2549, 2.50471, 0
-11.343, -17.2485, 4.8351, 0
1.05301, 19.0472, 2.4359, 0
1.02283, 19.029, 2.4823, 0
1.04569, 19.047, 2.00301, 0
1.45271, 19.0895, 2.59996, 0
-4.92113, 19.4646, 3.0409, 0
1.1302, 19.1075, 2.90054, 0
1.02973, 19.0295, 3.54122, 0
1.10299, 19.1601, 4.78372, 0
0.273266, 19.2227, 2.60182, 0
1.52801, 19.074, 3.28096, 0
0.803767, 19.1665, 3.53968, 0
-4.73986, 19.1495, 3.05196, 0
0.996816, 19.1762, 3.0273, 0
1.39946, 19.1339, 2.32773, 0
1.37587, 19.0775, 3.5628, 0
1.06333, 19.0468, 4.21392, 0
-4.3194, 19.3143, 2.88364, 0
1.54724, 19.0844, 4.5433, 0
0.573167, 19.1972, 2.45633, 0
0.776543, 19.3603, 2.13204, 0
1.4257, 19.1522, 4.85503, 0
0.613958, 19.2683, 2.76193, 0
1.50214, 19.0356, 3.89814, 0
0.802868, 19.145, 4.80989, 0
0.804496, 19.1839, 2.29573, 0
0.803006, 19.1483, 4.48873, 0
-4.9148, 19.4591, 3.3609, 0
1.36992, 19.0634, 3.87455, 0
1.22473, 19.0329, 4.51365, 0
-4.32815, 19.3141, 3.20429, 0
0.803467, 19.1593, 3.85393, 0
-4.7165, 19.1584, 3.32069, 0
0.804383, 19.1812, 2.60498, 0
0.803357, 19.1567, 4.17095, 0
-0.0423823, 19.2724, 2.01944, 0
-4.78715, 19.1977, 3.45792, 0
1.35855, 19.0432, 4.50471, 0
-0.0121099, 19.2222, 4.80053, 0
1.36421, 19.0527, 4.18859, 0
1.21389, 19.0435, 4.83426, 0
0.600092, 19.2449, 2.14236, 0
1.05568, 19.037, 2.81983, 0
1.18805, 19.1287, 4.48883, 0
0.306969, 19.3184, 2.29231, 0
1.19026, 19.1644, 2.2958, 0
1.18902, 19.1444, 3.53931, 0
-4.50034, 19.2907, 3.13207, 0
1.19007, 19.1612, 2.60499, 0
0.987189, 19.039, 3.4203, 0
1.18882, 19.1412, 3.85431, 0
-4.5953, 19.2897, 3.44734, 0
1.18862, 19.1378, 4.1712, 0
-4.55856, 19.2237, 3.48393, 0
-0.0437823, 19.2876, 4.49925, 0
-0.0121947, 19.2349, 4.1774, 0
-0.0436792, 19.2989, 3.876, 0
0.305133, 19.2247, 4.76824, 0
0.338162, 19.2958, 4.46105, 0
0.304961, 19.2358, 4.14497, 0
0.304984, 19.2398, 3.52476, 0
0.305339, 19.2498, 2.90759, 0
0.974403, 19.0332, 3.78025, 0
-4.47466, 19.2916, 2.81082, 0
0.242093, 19.1971, 3.427, 0
0.587014, 19.174, 4.62757, 0
1.09644, 19.0296, 3.64411, 0
0.573278, 19.1699, 4.00518, 0
0.613753, 19.2257, 4.31682, 0
1.10805, 19.0446, 3.32532, 0
0.599872, 19.2125, 3.69394, 0
0.586371, 19.2022, 3.07429, 0
0.287168, 19.1891, 3.88724, 0
1.00095, 19.0462, 3.05975, 0
0.653545, 19.2597, 4.78684, 0
1.08492, 19.0162, 3.9626, 0
0.566753, 19.1825, 3.21417, 0
0.993401, 19.2005, 3.33717, 0
-4.77288, 19.3036, 2.64658, 0
0.947373, 19.0372, 4.85467, 0
0.807693, 19.0332, 4.27346, 0
0.7977, 19.0427, 4.59358, 0
1.38876, 19.191, 3.03251, 0
1.10629, 19.0731, 3.42835, 0
-11.777, -17.2639, 5.21375, 0
-11.5116, -17.1282, 5.69523, 0
-10.98, -17.6223, 5.35833, 0
-11.2708, -17.3979, 5.37545, 0
-11.2628, -17.3745, 5.72064, 0
-11.6387, -17.068, 5.18558, 0
-11.3347, -17.236, 5.87986, 0
-11.3405, -17.2448, 5.18082, 0
-11.6325, -17.0589, 5.88516, 0
-11.2456, -17.4011, 5.01148, 0
-11.2916, -17.441, 5.03798, 0
-11.3378, -17.2407, 5.52903, 0
-11.1101, -17.4942, 5.3693, 0
-11.6358, -17.0637, 5.53406, 0
-10.9828, -17.6181, 5.0154, 0
-11.2316, -17.397, 5.69473, 0
-11.2356, -17.2464, 5.696, 0
-11.5809, -17.1442, 5.78324, 0
-11.6329, -13.9875, 2.94071, 0
-11.6514, -13.6774, 3.62508, 0
-11.5523, -5.26181, 2.32864, 0
-11.6116, -8.56608, 3.56134, 0
-11.6198, -7.53109, 2.53592, 0
-11.6008, -13.6071, 2.69403, 0
-11.5972, -14.5202, 2.70274, 0
-11.659, -14.4978, 2.98403, 0
-11.6492, -14.4988, 3.55265, 0
-11.6414, -7.50964, 3.16428, 0
-11.6676, -14.5354, 3.33881, 0
